0.368355 0.791676 0.279113 0.800000 0.200000 0.500000
0.107763 -0.445454 -0.297523 0.000000 0.500000 0.500000
-0.321909 0.615585 0.279113 0.300000 0.000000 0.600000
-0.305861 -0.847748 -0.232335 0.000000 0.500000 0.500000
0.419536 -0.050306 -0.052685 0.000000 0.500000 0.500000
-0.063540 0.069428 0.279888 0.300000 0.000000 0.600000
0.015286 -0.601124 0.245073 0.800000 0.200000 0.500000
0.051842 0.066297 0.329559 0.000000 0.000000 1.000000
0.010828 0.879101 -0.149914 0.000000 0.500000 0.500000
-0.107804 -0.510426 -0.293731 0.000000 0.500000 0.500000
0.055791 0.871019 0.305411 0.000000 0.000000 1.000000
-0.252746 0.879101 0.020933 0.000000 0.500000 0.500000
-0.143144 -0.094926 0.280943 0.300000 0.000000 0.600000
-0.266365 -0.511298 0.280943 0.300000 0.000000 0.600000
-0.182726 -0.655995 0.279112 0.300000 0.000000 0.600000
0.283911 -0.127942 -0.293731 0.000000 0.500000 0.500000
-0.414028 0.462789 0.134092 0.000000 0.500000 0.500000
0.423328 -0.112414 0.047407 0.000000 0.500000 0.500000
-0.137072 -0.372789 0.279417 0.300000 0.000000 0.600000
0.423328 -0.704214 0.060867 0.000000 0.500000 0.500000
-0.321561 0.839626 -0.291277 0.000000 0.500000 0.500000
0.038153 0.137219 0.278977 0.800000 0.200000 0.500000
0.335627 0.049377 -0.293731 0.000000 0.500000 0.500000
0.044320 0.070146 -0.293723 0.000000 0.500000 0.500000
-0.412928 0.123515 0.108260 0.000000 0.500000 0.500000
-0.410382 -0.698120 -0.045027 0.000000 0.500000 0.500000
0.419536 0.668871 0.175534 0.000000 0.500000 0.500000
0.079974 0.879409 -0.258120 0.000000 0.500000 0.500000
-0.398456 -0.767514 -0.120654 0.000000 0.500000 0.500000
0.049167 0.283455 0.281105 0.800000 0.200000 0.500000
-0.133506 -0.019019 -0.297523 0.000000 0.500000 0.500000
-0.205887 -0.012153 0.280943 0.300000 0.000000 0.600000
0.419536 0.494208 -0.121102 0.000000 0.500000 0.500000
-0.009586 0.691420 0.328069 0.600000 0.000000 0.300000
0.422211 -0.146049 0.218756 0.000000 0.500000 0.500000
0.195803 -0.644140 0.279112 0.800000 0.200000 0.500000
-0.410382 -0.096033 -0.212874 0.000000 0.500000 0.500000
0.411226 -0.848961 -0.020206 0.000000 0.500000 0.500000
0.130879 0.218007 -0.293731 0.000000 0.500000 0.500000
0.268280 0.185892 0.281360 0.800000 0.200000 0.500000
0.419536 -0.024588 -0.214657 0.000000 0.500000 0.500000
0.144075 0.280516 0.279112 0.800000 0.200000 0.500000
-0.100993 0.312029 -0.297523 0.000000 0.500000 0.500000
0.265811 -0.490668 0.279113 0.800000 0.200000 0.500000
0.423328 -0.517055 -0.079762 0.000000 0.500000 0.500000
-0.414168 0.575751 0.202569 0.000000 0.500000 0.500000
0.421401 0.283820 0.221047 0.000000 0.500000 0.500000
0.423328 -0.628537 0.019167 0.000000 0.500000 0.500000
-0.072167 0.849731 -0.297501 0.000000 0.500000 0.500000
-0.261927 -0.508928 -0.293731 0.000000 0.500000 0.500000
-0.331313 0.875310 -0.142910 0.000000 0.500000 0.500000
-0.026207 -0.688028 -0.297523 0.000000 0.500000 0.500000
0.421382 0.091413 0.280625 0.800000 0.200000 0.500000
-0.261496 0.432585 0.279155 0.300000 0.000000 0.600000
0.372497 -0.851540 0.065942 0.000000 0.500000 0.500000
0.141417 0.879101 -0.091116 0.000000 0.500000 0.500000
-0.291683 -0.847301 0.151613 0.000000 0.500000 0.500000
-0.410382 0.291906 0.159392 0.000000 0.500000 0.500000
0.423328 -0.188052 -0.231752 0.000000 0.500000 0.500000
-0.414173 -0.388270 -0.027220 0.000000 0.500000 0.500000
0.423646 -0.434032 -0.176131 0.000000 0.500000 0.500000
-0.106782 0.879517 0.097918 0.000000 0.500000 0.500000
0.049533 -0.698752 0.320141 0.000000 0.000000 1.000000
-0.030165 0.539446 0.281609 0.300000 0.000000 0.600000
0.151180 -0.057876 0.280943 0.800000 0.200000 0.500000
0.049189 -0.464408 0.280943 0.800000 0.200000 0.500000
0.016284 -0.324709 0.323700 0.000000 0.000000 1.000000
-0.413847 0.105004 -0.194120 0.000000 0.500000 0.500000
-0.412120 0.281466 -0.035472 0.000000 0.500000 0.500000
0.104394 -0.355395 -0.293731 0.000000 0.500000 0.500000
0.423328 -0.770114 -0.066580 0.000000 0.500000 0.500000
0.342727 0.213498 -0.293731 0.000000 0.500000 0.500000
0.417691 0.874029 -0.048885 0.000000 0.500000 0.500000
-0.405102 -0.238280 -0.278926 0.000000 0.500000 0.500000
0.163254 0.879101 0.175832 0.000000 0.500000 0.500000
0.177453 0.202208 0.280943 0.800000 0.200000 0.500000
-0.409997 0.071362 -0.038104 0.000000 0.500000 0.500000
0.386842 0.879455 0.056913 0.000000 0.500000 0.500000
-0.355532 0.223012 0.285490 1.000000 0.000000 0.000000
-0.410403 0.826045 -0.217943 0.000000 0.500000 0.500000
0.423344 0.095232 0.005519 0.000000 0.500000 0.500000
0.422623 -0.735042 0.277367 0.800000 0.200000 0.500000
-0.186722 -0.468019 0.280958 0.300000 0.000000 0.600000
0.138869 -0.171291 -0.293443 0.000000 0.500000 0.500000
-0.410450 0.731275 0.206945 0.000000 0.500000 0.500000
-0.414173 -0.185945 -0.114202 0.000000 0.500000 0.500000
-0.216972 -0.177787 0.280943 0.300000 0.000000 0.600000
-0.187422 -0.659542 -0.293731 0.000000 0.500000 0.500000
0.251678 -0.343385 0.279264 0.800000 0.200000 0.500000
0.209151 -0.583357 -0.297523 0.000000 0.500000 0.500000
-0.144893 -0.330724 -0.293731 0.000000 0.500000 0.500000
-0.410383 -0.378344 0.178211 0.000000 0.500000 0.500000
-0.410382 0.288104 -0.214985 0.000000 0.500000 0.500000
-0.410359 0.453186 -0.222023 0.000000 0.500000 0.500000
-0.410382 -0.637775 0.064989 0.000000 0.500000 0.500000
-0.380837 0.538082 0.281222 0.300000 0.000000 0.600000
0.034143 0.628540 0.281233 0.800000 0.200000 0.500000
-0.410392 0.007999 0.197716 0.000000 0.500000 0.500000
-0.061324 -0.071728 0.281275 0.300000 0.000000 0.600000
0.299466 0.323641 0.279758 0.800000 0.200000 0.500000
-0.413197 -0.305314 0.220177 0.000000 0.500000 0.500000
0.289428 0.048248 0.279417 0.800000 0.200000 0.500000
-0.410382 0.802171 -0.077960 0.000000 0.500000 0.500000
-0.408711 -0.551730 0.221565 0.000000 0.500000 0.500000
0.055793 -0.202374 -0.297523 0.000000 0.500000 0.500000
-0.346817 0.409910 -0.297523 0.000000 0.500000 0.500000
-0.410382 0.719259 0.098186 0.000000 0.500000 0.500000
-0.410382 -0.612471 -0.192193 0.000000 0.500000 0.500000
-0.349867 0.875310 -0.055307 0.000000 0.500000 0.500000
0.419536 0.776782 -0.053621 0.000000 0.500000 0.500000
-0.036336 -0.437010 -0.297523 0.000000 0.500000 0.500000
0.419536 -0.772564 0.128412 0.000000 0.500000 0.500000
0.348878 -0.502687 -0.297523 0.000000 0.500000 0.500000
0.421831 0.419968 0.242497 0.800000 0.200000 0.500000
0.033046 -0.779942 0.232085 0.000000 0.500000 0.500000
-0.195875 -0.851540 -0.104181 0.000000 0.500000 0.500000
0.385210 0.647271 0.279402 0.800000 0.200000 0.500000
0.343196 -0.713470 0.279112 0.800000 0.200000 0.500000
-0.411913 0.413243 0.221295 0.000000 0.500000 0.500000
-0.369111 0.459838 0.279429 0.300000 0.000000 0.600000
-0.384418 0.788456 -0.286999 0.000000 0.500000 0.500000
0.423328 0.623281 -0.090638 0.000000 0.500000 0.500000
0.088036 0.803083 0.280943 0.800000 0.200000 0.500000
-0.224822 0.117134 0.220977 1.000000 0.000000 0.000000
-0.251040 -0.223584 -0.297523 0.000000 0.500000 0.500000
-0.082160 0.263142 0.285490 1.000000 0.000000 0.000000
-0.194148 0.709901 0.279112 0.300000 0.000000 0.600000
0.423328 -0.468220 -0.013175 0.000000 0.500000 0.500000
-0.412000 0.043221 0.038034 0.000000 0.500000 0.500000
0.341496 0.794300 -0.293731 0.000000 0.500000 0.500000
0.127661 -0.847413 0.158820 0.000000 0.500000 0.500000
0.039883 0.230843 -0.293731 0.000000 0.500000 0.500000
-0.006085 0.409255 0.265735 0.300000 0.000000 0.600000
-0.190516 0.579795 -0.293731 0.000000 0.500000 0.500000
-0.218029 0.217474 -0.297523 0.000000 0.500000 0.500000
-0.413991 -0.010008 -0.098658 0.000000 0.500000 0.500000
-0.397437 -0.457204 0.275092 0.300000 0.000000 0.600000
-0.004102 -0.001988 0.262683 0.300000 0.000000 0.600000
0.222743 0.674036 -0.293731 0.000000 0.500000 0.500000
0.093877 -0.763541 0.280943 0.800000 0.200000 0.500000
-0.410382 0.343901 0.076505 0.000000 0.500000 0.500000
0.005204 0.875310 0.106601 0.000000 0.500000 0.500000
0.415344 -0.543787 0.280921 0.800000 0.200000 0.500000
-0.234148 0.852807 -0.287463 0.000000 0.500000 0.500000
0.297787 0.526692 0.280943 0.800000 0.200000 0.500000
-0.121244 -0.539424 0.279620 0.300000 0.000000 0.600000
-0.377959 0.710169 -0.291243 0.000000 0.500000 0.500000
-0.352370 0.875310 0.162456 0.000000 0.500000 0.500000
0.357123 -0.382478 -0.293731 0.000000 0.500000 0.500000
-0.221582 0.261233 0.285490 1.000000 0.000000 0.000000
0.350455 -0.847662 -0.289611 0.000000 0.500000 0.500000
0.362148 0.700779 -0.293731 0.000000 0.500000 0.500000
0.423328 0.214398 0.079792 0.000000 0.500000 0.500000
-0.356594 -0.682672 0.279115 0.300000 0.000000 0.600000
-0.045702 -0.785766 0.308156 0.600000 0.000000 0.300000
-0.377790 -0.392263 -0.291394 0.000000 0.500000 0.500000
-0.412021 -0.059602 0.044967 0.000000 0.500000 0.500000
0.361582 -0.848523 0.221360 0.000000 0.500000 0.500000
0.089292 -0.620520 0.281532 0.800000 0.200000 0.500000
0.225682 0.878589 0.264793 0.800000 0.200000 0.500000
0.418866 0.034530 -0.284466 0.000000 0.500000 0.500000
-0.313478 0.301682 0.285490 1.000000 0.000000 0.000000
-0.127032 0.879101 -0.078452 0.000000 0.500000 0.500000
0.115822 -0.847389 -0.085931 0.000000 0.500000 0.500000
0.077491 0.691037 -0.293731 0.000000 0.500000 0.500000
-0.410382 0.584165 0.029998 0.000000 0.500000 0.500000
0.423328 0.141485 -0.231230 0.000000 0.500000 0.500000
0.423512 -0.110918 -0.278391 0.000000 0.500000 0.500000
0.043424 -0.790551 -0.297523 0.000000 0.500000 0.500000
-0.206720 0.875310 -0.217572 0.000000 0.500000 0.500000
-0.152902 -0.780310 0.227881 0.000000 0.500000 0.500000
0.355474 -0.250848 -0.293731 0.000000 0.500000 0.500000
-0.412230 -0.105895 0.279014 0.300000 0.000000 0.600000
-0.372025 0.834961 0.280943 0.300000 0.000000 0.600000
-0.111733 0.879101 -0.220322 0.000000 0.500000 0.500000
0.154941 0.514308 -0.293731 0.000000 0.500000 0.500000
-0.199626 -0.056311 -0.293731 0.000000 0.500000 0.500000
0.005481 0.875986 -0.290299 0.000000 0.500000 0.500000
0.408930 -0.829387 -0.198497 0.000000 0.500000 0.500000
-0.329334 -0.686646 -0.297523 0.000000 0.500000 0.500000
0.419542 -0.345394 -0.227470 0.000000 0.500000 0.500000
-0.287225 -0.141614 -0.297523 0.000000 0.500000 0.500000
0.419536 -0.350403 -0.075724 0.000000 0.500000 0.500000
-0.412052 0.205784 0.003155 0.000000 0.500000 0.500000
-0.409204 -0.486761 -0.261836 0.000000 0.500000 0.500000
-0.177408 -0.847698 0.151914 0.000000 0.500000 0.500000
-0.149882 0.878921 0.200471 0.000000 0.500000 0.500000
-0.403993 -0.788052 0.169483 0.000000 0.500000 0.500000
0.009394 -0.851540 0.059911 0.000000 0.500000 0.500000
-0.238603 0.708974 -0.293731 0.000000 0.500000 0.500000
0.047887 -0.170846 0.333935 0.000000 0.000000 1.000000
0.423328 0.387950 -0.137954 0.000000 0.500000 0.500000
-0.412640 0.625228 0.098991 0.000000 0.500000 0.500000
0.181195 -0.851540 -0.013170 0.000000 0.500000 0.500000
0.013664 -0.123745 0.272241 0.800000 0.200000 0.500000
0.423328 0.256432 -0.120058 0.000000 0.500000 0.500000
0.418795 0.462233 -0.287351 0.000000 0.500000 0.500000
-0.019938 0.876664 0.245937 0.300000 0.000000 0.600000
-0.019521 -0.134142 -0.297523 0.000000 0.500000 0.500000
-0.084929 0.686388 -0.297523 0.000000 0.500000 0.500000
-0.029626 -0.453999 0.279114 0.300000 0.000000 0.600000
0.134969 -0.847748 -0.224351 0.000000 0.500000 0.500000
-0.413046 -0.181367 0.273464 0.300000 0.000000 0.600000
-0.400654 0.685993 0.275046 0.300000 0.000000 0.600000
0.419536 -0.682698 -0.144463 0.000000 0.500000 0.500000
0.274879 -0.364448 -0.293731 0.000000 0.500000 0.500000
-0.084161 0.468757 0.279113 0.300000 0.000000 0.600000
-0.237723 0.365019 -0.293731 0.000000 0.500000 0.500000
-0.413072 0.670413 -0.043278 0.000000 0.500000 0.500000
-0.295672 -0.847748 0.062839 0.000000 0.500000 0.500000
0.146314 0.804989 -0.293731 0.000000 0.500000 0.500000
0.405006 -0.645500 -0.296701 0.000000 0.500000 0.500000
0.419536 0.364844 -0.015810 0.000000 0.500000 0.500000
-0.410382 0.799077 0.050075 0.000000 0.500000 0.500000
0.423328 0.695698 0.107083 0.000000 0.500000 0.500000
0.089823 -0.210846 0.279112 0.800000 0.200000 0.500000
0.252297 -0.851540 -0.151812 0.000000 0.500000 0.500000
-0.410382 -0.445157 -0.073585 0.000000 0.500000 0.500000
-0.412895 0.198959 0.083292 0.000000 0.500000 0.500000
-0.349597 -0.282506 -0.297523 0.000000 0.500000 0.500000
0.258617 -0.657688 -0.297523 0.000000 0.500000 0.500000
0.423328 0.817194 0.087237 0.000000 0.500000 0.500000
0.037394 0.547689 -0.297523 0.000000 0.500000 0.500000
0.183917 -0.850932 -0.279606 0.000000 0.500000 0.500000
0.219406 -0.014931 -0.297523 0.000000 0.500000 0.500000
0.023533 0.343825 -0.297523 0.000000 0.500000 0.500000
0.064768 0.879101 -0.098594 0.000000 0.500000 0.500000
0.381896 0.553245 0.279138 0.800000 0.200000 0.500000
-0.326750 0.775513 0.280943 0.300000 0.000000 0.600000
-0.414173 -0.420624 -0.152588 0.000000 0.500000 0.500000
0.354193 -0.094095 -0.293731 0.000000 0.500000 0.500000
0.422724 0.793358 0.214589 0.000000 0.500000 0.500000
-0.179445 -0.493472 -0.297523 0.000000 0.500000 0.500000
-0.106440 -0.169691 -0.297523 0.000000 0.500000 0.500000
-0.344823 0.548309 -0.297523 0.000000 0.500000 0.500000
-0.236329 0.875310 -0.143024 0.000000 0.500000 0.500000
-0.085929 0.439471 -0.297523 0.000000 0.500000 0.500000
0.419536 0.512826 -0.211226 0.000000 0.500000 0.500000
-0.365817 0.144417 -0.297523 0.000000 0.500000 0.500000
-0.013826 0.371815 0.335170 0.600000 0.000000 0.300000
0.242523 -0.847748 0.117058 0.000000 0.500000 0.500000
-0.395194 -0.022308 -0.278056 0.000000 0.500000 0.500000
-0.338337 0.151293 0.285490 1.000000 0.000000 0.000000
-0.413351 -0.237749 0.030354 0.000000 0.500000 0.500000
-0.154325 0.372833 0.279256 0.300000 0.000000 0.600000
-0.410382 0.628542 -0.121339 0.000000 0.500000 0.500000
-0.003783 0.748334 0.270897 0.300000 0.000000 0.600000
-0.410382 -0.083632 0.114979 0.000000 0.500000 0.500000
0.051190 0.340526 0.330557 0.000000 0.000000 1.000000
-0.030789 -0.579011 0.334066 0.600000 0.000000 0.300000
0.169878 -0.847332 -0.147719 0.000000 0.500000 0.500000
0.423328 0.566750 0.053518 0.000000 0.500000 0.500000
-0.152475 0.730644 -0.293731 0.000000 0.500000 0.500000
-0.197587 0.875310 -0.058639 0.000000 0.500000 0.500000
0.157007 -0.506732 0.280943 0.800000 0.200000 0.500000
-0.027760 -0.848464 0.225634 0.000000 0.500000 0.500000
0.150673 0.652241 -0.297523 0.000000 0.500000 0.500000
0.271308 0.657479 0.280943 0.800000 0.200000 0.500000
-0.346329 -0.544153 -0.297523 0.000000 0.500000 0.500000
0.411316 -0.290819 0.280934 0.800000 0.200000 0.500000
0.116069 -0.614740 -0.293731 0.000000 0.500000 0.500000
-0.385966 -0.838253 -0.271614 0.000000 0.500000 0.500000
-0.410382 0.342518 0.005428 0.000000 0.500000 0.500000
-0.413147 -0.247913 0.176775 0.000000 0.500000 0.500000
0.028837 -0.847452 0.164917 0.000000 0.500000 0.500000
0.090074 -0.394144 0.279113 0.800000 0.200000 0.500000
-0.409954 -0.531698 0.142705 0.000000 0.500000 0.500000
0.152005 0.064485 -0.297523 0.000000 0.500000 0.500000
-0.414049 0.788211 -0.153839 0.000000 0.500000 0.500000
-0.224279 0.499106 -0.297523 0.000000 0.500000 0.500000
0.260693 0.559858 -0.293731 0.000000 0.500000 0.500000
-0.085340 -0.676163 0.279123 0.300000 0.000000 0.600000
0.418449 -0.499016 -0.245185 0.000000 0.500000 0.500000
-0.353040 0.879763 -0.242404 0.000000 0.500000 0.500000
0.302020 -0.196209 -0.293731 0.000000 0.500000 0.500000
0.423605 0.332445 -0.256271 0.000000 0.500000 0.500000
-0.412402 0.476964 0.058705 0.000000 0.500000 0.500000
0.272542 -0.168001 0.280943 0.800000 0.200000 0.500000
0.352745 0.875310 -0.093827 0.000000 0.500000 0.500000
0.423328 -0.592356 -0.193110 0.000000 0.500000 0.500000
0.242934 0.755522 0.279113 0.800000 0.200000 0.500000
0.340417 -0.776887 -0.297523 0.000000 0.500000 0.500000
0.237107 -0.779922 0.231937 0.000000 0.500000 0.500000
0.120636 -0.088697 -0.297523 0.000000 0.500000 0.500000
-0.119882 -0.847449 0.024258 0.000000 0.500000 0.500000
0.002554 0.879101 -0.039509 0.000000 0.500000 0.500000
0.161034 -0.360441 0.279736 0.800000 0.200000 0.500000
0.423328 0.341054 0.110265 0.000000 0.500000 0.500000
-0.414170 0.166544 -0.160798 0.000000 0.500000 0.500000
0.423328 0.655527 -0.155017 0.000000 0.500000 0.500000
0.419541 0.260622 -0.226534 0.000000 0.500000 0.500000
-0.085371 0.879101 -0.145406 0.000000 0.500000 0.500000
0.168262 0.875310 -0.217758 0.000000 0.500000 0.500000
-0.182792 0.875310 0.063204 0.000000 0.500000 0.500000
-0.380829 -0.848225 -0.034848 0.000000 0.500000 0.500000
-0.411913 0.451360 -0.051082 0.000000 0.500000 0.500000
0.013704 -0.238214 0.272934 0.800000 0.200000 0.500000
0.419536 -0.079738 -0.115386 0.000000 0.500000 0.500000
0.419536 0.789165 -0.214676 0.000000 0.500000 0.500000
0.419536 0.429200 0.108127 0.000000 0.500000 0.500000
-0.410180 -0.673542 0.124199 0.000000 0.500000 0.500000
0.423328 0.533647 0.190150 0.000000 0.500000 0.500000
-0.028693 0.064102 -0.297523 0.000000 0.500000 0.500000
-0.137412 0.137271 -0.297523 0.000000 0.500000 0.500000
0.140537 -0.820225 0.220977 0.000000 0.500000 0.500000
0.035823 0.559625 0.281275 0.800000 0.200000 0.500000
-0.110336 -0.258073 0.280943 0.300000 0.000000 0.600000
-0.414091 -0.360148 -0.185742 0.000000 0.500000 0.500000
0.224089 0.875723 -0.258888 0.000000 0.500000 0.500000
0.181101 0.879101 -0.146939 0.000000 0.500000 0.500000
-0.013622 0.159190 0.226365 0.000000 0.500000 0.500000
-0.338054 0.879101 0.022406 0.000000 0.500000 0.500000
-0.413040 -0.356008 0.081058 0.000000 0.500000 0.500000
0.174666 0.410666 0.280943 0.800000 0.200000 0.500000
-0.039683 0.627192 0.279113 0.300000 0.000000 0.600000
0.159041 0.042523 0.279113 0.800000 0.200000 0.500000
0.420516 0.011167 0.255083 0.800000 0.200000 0.500000
-0.412430 -0.417762 0.120465 0.000000 0.500000 0.500000
-0.076127 -0.138100 0.279113 0.300000 0.000000 0.600000
0.376480 -0.402132 0.280943 0.800000 0.200000 0.500000
-0.135642 0.248433 -0.293577 0.000000 0.500000 0.500000
-0.329995 -0.851540 -0.164754 0.000000 0.500000 0.500000
0.419536 -0.738530 -0.004683 0.000000 0.500000 0.500000
0.423328 0.017282 0.175422 0.000000 0.500000 0.500000
-0.243396 -0.614458 0.279112 0.300000 0.000000 0.600000
0.412380 -0.081415 0.279126 0.800000 0.200000 0.500000
-0.410382 -0.291395 -0.076749 0.000000 0.500000 0.500000
0.423328 0.590306 -0.238985 0.000000 0.500000 0.500000
-0.412534 0.528461 -0.118636 0.000000 0.500000 0.500000
-0.382482 -0.161376 -0.288458 0.000000 0.500000 0.500000
0.174532 0.539698 0.280943 0.800000 0.200000 0.500000
0.295022 -0.779494 0.278765 0.800000 0.200000 0.500000
-0.097841 -0.790939 -0.293741 0.000000 0.500000 0.500000
-0.414064 0.799845 0.206898 0.000000 0.500000 0.500000
-0.056507 -0.851540 0.074797 0.000000 0.500000 0.500000
-0.411129 0.556564 -0.268309 0.000000 0.500000 0.500000
-0.215880 -0.851540 0.022017 0.000000 0.500000 0.500000
-0.290020 -0.789711 0.222113 0.000000 0.500000 0.500000
-0.279816 -0.766877 -0.293731 0.000000 0.500000 0.500000
0.419536 -0.242073 0.107168 0.000000 0.500000 0.500000
-0.140349 0.636405 0.280943 0.300000 0.000000 0.600000
0.230290 0.879623 -0.003391 0.000000 0.500000 0.500000
0.189824 0.329642 0.280943 0.800000 0.200000 0.500000
0.423328 0.112139 -0.158967 0.000000 0.500000 0.500000
-0.411363 0.219022 0.220693 0.000000 0.500000 0.500000
0.065631 0.443664 0.279113 0.800000 0.200000 0.500000
0.143640 0.356456 -0.297523 0.000000 0.500000 0.500000
-0.255937 0.569801 0.280943 0.300000 0.000000 0.600000
0.136276 0.447166 -0.293731 0.000000 0.500000 0.500000
-0.233928 -0.847748 -0.204032 0.000000 0.500000 0.500000
0.296744 0.875310 0.082799 0.000000 0.500000 0.500000
0.258343 -0.847283 -0.047160 0.000000 0.500000 0.500000
-0.386457 -0.608646 -0.297409 0.000000 0.500000 0.500000
0.133359 -0.709358 -0.293731 0.000000 0.500000 0.500000
0.419536 -0.296997 -0.117308 0.000000 0.500000 0.500000
0.325059 0.358638 -0.293731 0.000000 0.500000 0.500000
-0.410399 -0.793136 0.051339 0.000000 0.500000 0.500000
0.423328 -0.045895 0.046521 0.000000 0.500000 0.500000
-0.295449 -0.835183 -0.297174 0.000000 0.500000 0.500000
-0.254234 -0.851540 -0.064708 0.000000 0.500000 0.500000
-0.285073 -0.175296 0.279608 0.300000 0.000000 0.600000
-0.007729 -0.727573 0.280811 0.300000 0.000000 0.600000
0.369159 -0.196534 0.280943 0.800000 0.200000 0.500000
0.203208 -0.715843 -0.297523 0.000000 0.500000 0.500000
-0.414103 -0.541423 -0.183740 0.000000 0.500000 0.500000
-0.227455 0.183356 0.220977 1.000000 0.000000 0.000000
0.081675 -0.068885 0.280943 0.800000 0.200000 0.500000
0.282943 0.245433 -0.297523 0.000000 0.500000 0.500000
0.227938 -0.220618 0.280943 0.800000 0.200000 0.500000
-0.129874 0.216064 0.268832 1.000000 0.000000 0.000000
-0.015378 -0.647359 0.280934 0.300000 0.000000 0.600000
0.423328 -0.580638 -0.055445 0.000000 0.500000 0.500000
0.184760 -0.719841 0.280943 0.800000 0.200000 0.500000
0.030668 -0.552484 0.337907 0.000000 0.000000 1.000000
-0.247147 -0.632154 -0.297523 0.000000 0.500000 0.500000
-0.065237 -0.028532 -0.297523 0.000000 0.500000 0.500000
-0.413183 0.355116 0.252004 0.300000 0.000000 0.600000
0.423328 0.456942 0.184386 0.000000 0.500000 0.500000
-0.102951 -0.787891 0.272680 0.300000 0.000000 0.600000
0.359719 -0.601581 0.280943 0.800000 0.200000 0.500000
0.423561 0.057033 -0.059541 0.000000 0.500000 0.500000
0.032334 -0.847267 -0.012071 0.000000 0.500000 0.500000
-0.195887 -0.371882 -0.293731 0.000000 0.500000 0.500000
0.278485 -0.498572 -0.293329 0.000000 0.500000 0.500000
0.127727 -0.851540 0.053506 0.000000 0.500000 0.500000
0.419645 0.728808 0.205025 0.000000 0.500000 0.500000
0.419540 -0.228153 0.188556 0.000000 0.500000 0.500000
-0.016794 0.815131 -0.297523 0.000000 0.500000 0.500000
-0.133954 0.805883 -0.293731 0.000000 0.500000 0.500000
-0.189643 0.814680 0.279113 0.300000 0.000000 0.600000
0.169717 0.879375 0.095973 0.000000 0.500000 0.500000
-0.245139 0.879101 0.115219 0.000000 0.500000 0.500000
-0.020702 0.503362 0.334546 0.600000 0.000000 0.300000
-0.041216 -0.526541 0.279114 0.300000 0.000000 0.600000
0.410198 -0.779992 0.232465 0.000000 0.500000 0.500000
0.419601 -0.644612 0.200911 0.000000 0.500000 0.500000
-0.327942 0.871745 0.223111 0.000000 0.500000 0.500000
0.006932 -0.064374 -0.297523 0.000000 0.500000 0.500000
0.419536 -0.366834 0.071460 0.000000 0.500000 0.500000
0.135432 0.736348 0.280943 0.800000 0.200000 0.500000
0.063519 0.875310 0.038507 0.000000 0.500000 0.500000
-0.023012 -0.061333 0.335101 0.600000 0.000000 0.300000
-0.078380 0.879101 -0.008292 0.000000 0.500000 0.500000
-0.179287 0.081922 -0.297523 0.000000 0.500000 0.500000
0.008175 0.454501 -0.297523 0.000000 0.500000 0.500000
-0.409736 -0.177679 0.007798 0.000000 0.500000 0.500000
-0.220743 0.878070 0.214003 0.000000 0.500000 0.500000
0.414316 -0.225184 -0.292098 0.000000 0.500000 0.500000
-0.297408 -0.096668 0.281246 0.300000 0.000000 0.600000
-0.081557 0.744022 0.279113 0.300000 0.000000 0.600000
-0.249669 -0.448151 0.280943 0.300000 0.000000 0.600000
0.423303 -0.409626 0.198666 0.000000 0.500000 0.500000
0.337011 -0.476021 0.279113 0.800000 0.200000 0.500000
-0.276519 0.040808 -0.293731 0.000000 0.500000 0.500000
0.285717 0.875310 -0.105418 0.000000 0.500000 0.500000
0.026824 0.875310 -0.214691 0.000000 0.500000 0.500000
0.423328 -0.094754 0.161129 0.000000 0.500000 0.500000
-0.129874 0.125929 0.279934 1.000000 0.000000 0.000000
0.423328 0.557208 -0.111795 0.000000 0.500000 0.500000
-0.404641 -0.749991 -0.276596 0.000000 0.500000 0.500000
0.422753 0.714384 -0.279830 0.000000 0.500000 0.500000
0.385273 0.842607 -0.289953 0.000000 0.500000 0.500000
0.419536 0.270004 -0.033643 0.000000 0.500000 0.500000
0.241739 -0.851540 0.014220 0.000000 0.500000 0.500000
-0.240881 -0.308485 0.281176 0.300000 0.000000 0.600000
0.423328 0.112879 0.141680 0.000000 0.500000 0.500000
0.419536 -0.575169 0.056549 0.000000 0.500000 0.500000
0.419552 -0.751927 -0.238356 0.000000 0.500000 0.500000
-0.038264 -0.289667 0.333009 0.600000 0.000000 0.300000
-0.413937 -0.684326 -0.211799 0.000000 0.500000 0.500000
0.401467 0.282504 0.280943 0.800000 0.200000 0.500000
-0.315424 -0.847222 0.210900 0.000000 0.500000 0.500000
-0.091929 0.376808 -0.293731 0.000000 0.500000 0.500000
-0.069039 0.821293 0.279113 0.300000 0.000000 0.600000
-0.412102 -0.289526 0.074799 0.000000 0.500000 0.500000
0.364194 -0.847642 -0.136451 0.000000 0.500000 0.500000
-0.410382 0.716718 -0.171930 0.000000 0.500000 0.500000
0.152031 -0.590686 0.279706 0.800000 0.200000 0.500000
0.419536 -0.205334 -0.029417 0.000000 0.500000 0.500000
0.123608 -0.263716 0.279156 0.800000 0.200000 0.500000
-0.249040 0.280754 -0.297523 0.000000 0.500000 0.500000
0.017142 -0.449788 0.221259 0.000000 0.500000 0.500000
-0.347418 0.017993 0.280137 0.300000 0.000000 0.600000
-0.354866 -0.203093 0.280943 0.300000 0.000000 0.600000
0.017389 0.816332 0.329700 0.000000 0.000000 1.000000
-0.269188 0.160246 -0.293731 0.000000 0.500000 0.500000
0.352670 -0.851540 -0.041924 0.000000 0.500000 0.500000
0.006113 -0.851540 -0.142020 0.000000 0.500000 0.500000
-0.414173 -0.479436 0.044951 0.000000 0.500000 0.500000
-0.024523 -0.750078 -0.297523 0.000000 0.500000 0.500000
-0.408712 -0.569105 0.281152 0.300000 0.000000 0.600000
0.281680 -0.851540 0.069087 0.000000 0.500000 0.500000
0.423328 0.427951 0.000199 0.000000 0.500000 0.500000
0.255913 0.879101 0.129274 0.000000 0.500000 0.500000
-0.011290 0.270753 0.277982 0.300000 0.000000 0.600000
0.423328 -0.456638 0.112881 0.000000 0.500000 0.500000
-0.069048 -0.381901 -0.293731 0.000000 0.500000 0.500000
-0.005985 -0.348748 0.267816 0.300000 0.000000 0.600000
0.016324 0.875336 0.186507 0.000000 0.500000 0.500000
0.421998 -0.155385 0.279735 0.800000 0.200000 0.500000
0.271874 0.433242 0.279112 0.800000 0.200000 0.500000
0.013801 -0.409232 0.275169 0.800000 0.200000 0.500000
0.330251 0.180939 0.280943 0.800000 0.200000 0.500000
0.059693 0.746021 0.279407 0.800000 0.200000 0.500000
0.238848 -0.420784 0.279448 0.800000 0.200000 0.500000
0.279531 -0.564665 0.279113 0.800000 0.200000 0.500000
0.256206 -0.282010 0.280943 0.800000 0.200000 0.500000
-0.410382 -0.555234 0.008139 0.000000 0.500000 0.500000
-0.413027 0.067659 0.133936 0.000000 0.500000 0.500000
-0.413362 0.257176 0.106829 0.000000 0.500000 0.500000
-0.216052 -0.707558 0.280943 0.300000 0.000000 0.600000
-0.190803 -0.212263 -0.293731 0.000000 0.500000 0.500000
-0.047252 -0.500211 -0.293731 0.000000 0.500000 0.500000
-0.411294 -0.696734 0.255042 0.300000 0.000000 0.600000
0.037098 -0.482916 0.338208 0.000000 0.000000 1.000000
-0.332435 -0.275721 0.279112 0.300000 0.000000 0.600000
0.419536 0.167469 0.028946 0.000000 0.500000 0.500000
-0.408932 0.685360 -0.244381 0.000000 0.500000 0.500000
-0.414173 -0.040372 -0.153497 0.000000 0.500000 0.500000
0.386629 0.878665 0.213677 0.000000 0.500000 0.500000
0.111936 -0.465331 0.281502 0.800000 0.200000 0.500000
-0.023093 0.470604 0.281531 0.300000 0.000000 0.600000
-0.015471 0.205230 -0.297523 0.000000 0.500000 0.500000
-0.018814 -0.627382 -0.297523 0.000000 0.500000 0.500000
-0.382715 0.879611 -0.189044 0.000000 0.500000 0.500000
-0.009565 -0.347115 -0.297523 0.000000 0.500000 0.500000
-0.372048 -0.325174 0.280943 0.300000 0.000000 0.600000
0.415216 0.876203 0.115373 0.000000 0.500000 0.500000
-0.049326 0.568469 -0.293731 0.000000 0.500000 0.500000
-0.042086 0.127379 0.279348 0.300000 0.000000 0.600000
0.423328 0.829019 -0.089427 0.000000 0.500000 0.500000
-0.284777 0.494139 -0.293731 0.000000 0.500000 0.500000
0.056397 -0.548375 -0.293731 0.000000 0.500000 0.500000
0.419536 -0.495217 0.056968 0.000000 0.500000 0.500000
0.051053 0.694000 0.330520 0.000000 0.000000 1.000000
-0.410382 -0.556918 -0.053126 0.000000 0.500000 0.500000
0.077928 0.515502 0.280943 0.800000 0.200000 0.500000
-0.410382 -0.164916 0.138114 0.000000 0.500000 0.500000
0.059036 0.879551 0.142842 0.000000 0.500000 0.500000
-0.341445 -0.060149 -0.297523 0.000000 0.500000 0.500000
-0.412866 0.148489 0.221651 0.000000 0.500000 0.500000
0.035165 0.128443 0.338716 0.000000 0.000000 1.000000
-0.413634 -0.074864 -0.034280 0.000000 0.500000 0.500000
-0.134022 -0.851540 -0.132990 0.000000 0.500000 0.500000
0.264141 -0.851540 0.176133 0.000000 0.500000 0.500000
-0.234642 -0.847554 0.171547 0.000000 0.500000 0.500000
0.419536 -0.287218 0.005253 0.000000 0.500000 0.500000
0.284879 0.879101 0.022408 0.000000 0.500000 0.500000
-0.255510 0.678054 0.279112 0.300000 0.000000 0.600000
-0.278980 -0.295603 -0.293731 0.000000 0.500000 0.500000
0.159240 -0.040676 -0.297523 0.000000 0.500000 0.500000
0.423328 0.657834 -0.223179 0.000000 0.500000 0.500000
0.395573 0.147342 0.279113 0.800000 0.200000 0.500000
-0.411269 -0.421131 0.220580 0.000000 0.500000 0.500000
-0.069697 -0.260451 -0.297523 0.000000 0.500000 0.500000
0.321531 0.379653 0.279824 0.800000 0.200000 0.500000
-0.043605 -0.847790 -0.247244 0.000000 0.500000 0.500000
0.213891 0.733354 -0.297523 0.000000 0.500000 0.500000
-0.413992 -0.474366 -0.203284 0.000000 0.500000 0.500000
-0.212692 0.396478 0.280943 0.300000 0.000000 0.600000
0.330501 0.875311 -0.232593 0.000000 0.500000 0.500000
0.419536 -0.030129 -0.148874 0.000000 0.500000 0.500000
-0.153986 0.095810 0.228885 1.000000 0.000000 0.000000
0.079519 -0.044089 -0.293552 0.000000 0.500000 0.500000
0.108337 -0.779565 -0.297523 0.000000 0.500000 0.500000
-0.312903 -0.847748 -0.074956 0.000000 0.500000 0.500000
-0.412332 0.138707 -0.038682 0.000000 0.500000 0.500000
0.100755 0.761999 -0.293731 0.000000 0.500000 0.500000
0.419536 0.553209 0.113716 0.000000 0.500000 0.500000
-0.410382 0.420283 0.076965 0.000000 0.500000 0.500000
0.049303 0.373639 0.281100 0.800000 0.200000 0.500000
0.419536 0.598776 0.159181 0.000000 0.500000 0.500000
-0.410385 -0.784407 0.110429 0.000000 0.500000 0.500000
0.154799 0.661060 0.279113 0.800000 0.200000 0.500000
0.048329 -0.110879 0.319025 0.000000 0.000000 1.000000
-0.089283 -0.847748 -0.032367 0.000000 0.500000 0.500000
-0.412194 0.130457 -0.257181 0.000000 0.500000 0.500000
-0.004140 0.056023 0.276309 0.300000 0.000000 0.600000
0.419536 0.691589 -0.026440 0.000000 0.500000 0.500000
-0.410382 -0.730380 0.017547 0.000000 0.500000 0.500000
0.343191 -0.009541 -0.293731 0.000000 0.500000 0.500000
0.359866 -0.601997 -0.297523 0.000000 0.500000 0.500000
0.419536 -0.484431 -0.134544 0.000000 0.500000 0.500000
0.233299 -0.257411 -0.293731 0.000000 0.500000 0.500000
-0.069952 -0.733497 0.279120 0.300000 0.000000 0.600000
-0.102534 0.875310 0.164884 0.000000 0.500000 0.500000
0.039446 0.269926 0.338027 0.000000 0.000000 1.000000
-0.413936 -0.259302 -0.213073 0.000000 0.500000 0.500000
-0.410382 -0.138180 -0.168406 0.000000 0.500000 0.500000
-0.110881 -0.851540 0.152164 0.000000 0.500000 0.500000
-0.258961 -0.567967 -0.297523 0.000000 0.500000 0.500000
0.368707 0.063930 0.279113 0.800000 0.200000 0.500000
-0.008803 0.351024 0.276575 0.300000 0.000000 0.600000
0.355231 0.446425 -0.297523 0.000000 0.500000 0.500000
-0.352904 -0.779892 0.232035 0.000000 0.500000 0.500000
0.052499 0.598221 0.328513 0.000000 0.000000 1.000000
-0.149218 0.502184 0.279113 0.300000 0.000000 0.600000
0.027833 0.695430 0.276224 0.800000 0.200000 0.500000
0.013641 0.190457 0.271835 0.800000 0.200000 0.500000
-0.367503 0.209655 -0.297523 0.000000 0.500000 0.500000
-0.148292 -0.085384 -0.293731 0.000000 0.500000 0.500000
-0.187545 -0.847971 0.219131 0.000000 0.500000 0.500000
-0.195907 0.209902 0.272469 1.000000 0.000000 0.000000
-0.175570 0.589398 0.279113 0.300000 0.000000 0.600000
-0.413275 -0.125637 0.220011 0.000000 0.500000 0.500000
-0.410050 0.322100 -0.162869 0.000000 0.500000 0.500000
-0.042879 0.203952 0.321746 0.600000 0.000000 0.300000
-0.155288 0.193028 -0.293731 0.000000 0.500000 0.500000
-0.409207 0.423647 -0.272700 0.000000 0.500000 0.500000
0.349462 0.859498 0.279120 0.800000 0.200000 0.500000
-0.263138 0.802260 -0.293731 0.000000 0.500000 0.500000
-0.412975 -0.475345 0.109591 0.000000 0.500000 0.500000
-0.011134 -0.258787 -0.297523 0.000000 0.500000 0.500000
-0.413844 0.589692 0.145475 0.000000 0.500000 0.500000
-0.413714 -0.638632 -0.080661 0.000000 0.500000 0.500000
-0.138799 -0.617458 0.279112 0.300000 0.000000 0.600000
0.372575 0.596373 -0.297523 0.000000 0.500000 0.500000
0.242722 -0.447095 -0.297523 0.000000 0.500000 0.500000
0.283749 0.077527 -0.293731 0.000000 0.500000 0.500000
0.050744 0.008791 0.319913 0.000000 0.000000 1.000000
0.411317 -0.848932 0.120838 0.000000 0.500000 0.500000
-0.412945 0.244367 -0.083684 0.000000 0.500000 0.500000
0.423328 0.840218 -0.175148 0.000000 0.500000 0.500000
0.209933 -0.058813 0.279937 0.800000 0.200000 0.500000
0.348380 -0.051688 0.280943 0.800000 0.200000 0.500000
-0.410382 -0.668969 0.015869 0.000000 0.500000 0.500000
-0.340612 -0.385412 0.280943 0.300000 0.000000 0.600000
-0.241373 0.645607 -0.297523 0.000000 0.500000 0.500000
0.343876 -0.325878 -0.293731 0.000000 0.500000 0.500000
0.166796 -0.140545 0.281416 0.800000 0.200000 0.500000
0.176051 -0.847748 0.121105 0.000000 0.500000 0.500000
0.283518 0.875948 0.269245 0.800000 0.200000 0.500000
-0.012561 -0.448476 0.334297 0.600000 0.000000 0.300000
-0.378490 0.319110 0.281323 0.300000 0.000000 0.600000
-0.409920 0.502193 -0.179616 0.000000 0.500000 0.500000
0.219437 0.344215 -0.293731 0.000000 0.500000 0.500000
0.419536 0.659360 0.060312 0.000000 0.500000 0.500000
0.419539 0.329287 0.185274 0.000000 0.500000 0.500000
-0.414075 0.852709 0.153658 0.000000 0.500000 0.500000
-0.173392 -0.851540 -0.249329 0.000000 0.500000 0.500000
0.419536 -0.741715 -0.116827 0.000000 0.500000 0.500000
0.301889 0.665318 -0.293731 0.000000 0.500000 0.500000
0.051126 0.012750 -0.293527 0.000000 0.500000 0.500000
0.419536 0.762494 0.061830 0.000000 0.500000 0.500000
0.163022 -0.462200 -0.297523 0.000000 0.500000 0.500000
0.363413 -0.258803 0.280943 0.800000 0.200000 0.500000
0.227189 -0.137286 -0.297523 0.000000 0.500000 0.500000
0.224892 -0.779935 -0.293731 0.000000 0.500000 0.500000
-0.004140 -0.067192 0.276486 0.300000 0.000000 0.600000
-0.410382 0.729941 0.037103 0.000000 0.500000 0.500000
0.024821 0.273425 0.230093 0.000000 0.500000 0.500000
0.423328 -0.684154 0.136017 0.000000 0.500000 0.500000
0.422653 -0.600916 0.273612 0.800000 0.200000 0.500000
-0.410382 0.023845 -0.158608 0.000000 0.500000 0.500000
0.419542 0.822257 0.280782 0.800000 0.200000 0.500000
0.333941 -0.779801 0.230791 0.000000 0.500000 0.500000
-0.414173 -0.440159 -0.003009 0.000000 0.500000 0.500000
-0.213157 0.475096 0.279113 0.300000 0.000000 0.600000
0.418264 0.388481 -0.245966 0.000000 0.500000 0.500000
-0.413960 0.123914 -0.115938 0.000000 0.500000 0.500000
0.419536 0.058006 0.048769 0.000000 0.500000 0.500000
-0.408845 0.661143 0.221510 0.000000 0.500000 0.500000
-0.252912 -0.371888 -0.297523 0.000000 0.500000 0.500000
0.106956 0.848016 -0.297523 0.000000 0.500000 0.500000
0.117778 0.122298 -0.293731 0.000000 0.500000 0.500000
-0.032470 -0.174873 0.279113 0.300000 0.000000 0.600000
-0.126648 -0.564292 -0.293731 0.000000 0.500000 0.500000
-0.210522 -0.234459 0.279886 0.300000 0.000000 0.600000
-0.046975 0.330252 -0.297523 0.000000 0.500000 0.500000
0.419536 -0.531321 0.178091 0.000000 0.500000 0.500000
0.413642 -0.275908 0.225541 0.000000 0.500000 0.500000
-0.412742 0.219670 0.277605 0.300000 0.000000 0.600000
-0.076554 -0.212326 0.279113 0.300000 0.000000 0.600000
0.032968 -0.848802 -0.286121 0.000000 0.500000 0.500000
0.334295 -0.710798 -0.297523 0.000000 0.500000 0.500000
-0.412877 -0.661845 0.210243 0.000000 0.500000 0.500000
0.077837 0.068303 0.279112 0.800000 0.200000 0.500000
0.220369 0.821671 0.280943 0.800000 0.200000 0.500000
0.364672 -0.847748 0.164361 0.000000 0.500000 0.500000
-0.172486 -0.821562 -0.297490 0.000000 0.500000 0.500000
-0.413194 0.392963 -0.135613 0.000000 0.500000 0.500000
-0.135820 0.850143 0.280953 0.300000 0.000000 0.600000
0.251156 0.616629 -0.297523 0.000000 0.500000 0.500000
-0.410401 0.042698 -0.238808 0.000000 0.500000 0.500000
-0.359382 -0.060694 0.280943 0.300000 0.000000 0.600000
0.414595 0.671077 0.237504 0.000000 0.500000 0.500000
-0.146940 0.035763 -0.297523 0.000000 0.500000 0.500000
0.062095 -0.847748 0.035787 0.000000 0.500000 0.500000
-0.397718 0.879644 -0.090581 0.000000 0.500000 0.500000
0.424017 -0.610966 -0.256473 0.000000 0.500000 0.500000
-0.411668 -0.625123 -0.247031 0.000000 0.500000 0.500000
0.423328 -0.576852 0.139930 0.000000 0.500000 0.500000
0.274942 -0.847537 -0.218101 0.000000 0.500000 0.500000
-0.038066 0.655595 -0.293731 0.000000 0.500000 0.500000
0.323444 0.292536 -0.293731 0.000000 0.500000 0.500000
0.419536 0.196343 -0.219773 0.000000 0.500000 0.500000
-0.294824 0.381882 0.280943 0.300000 0.000000 0.600000
-0.000681 -0.138108 0.219864 0.000000 0.500000 0.500000
0.088641 -0.668964 -0.293731 0.000000 0.500000 0.500000
-0.410382 0.523271 -0.062831 0.000000 0.500000 0.500000
-0.405694 -0.818003 -0.086050 0.000000 0.500000 0.500000
0.218492 -0.357136 -0.293413 0.000000 0.500000 0.500000
-0.398815 -0.328835 -0.288890 0.000000 0.500000 0.500000
0.238117 -0.607458 0.279112 0.800000 0.200000 0.500000
0.423435 -0.256682 -0.246731 0.000000 0.500000 0.500000
-0.034030 -0.851540 -0.082120 0.000000 0.500000 0.500000
-0.401411 -0.826712 -0.146935 0.000000 0.500000 0.500000
-0.080320 -0.381426 0.279113 0.300000 0.000000 0.600000
0.024904 -0.177709 0.281271 0.800000 0.200000 0.500000
-0.119010 0.062922 0.279239 0.300000 0.000000 0.600000
-0.404525 -0.760192 0.224215 0.000000 0.500000 0.500000
0.139385 -0.309828 -0.297523 0.000000 0.500000 0.500000
0.417925 0.602258 0.277421 0.800000 0.200000 0.500000
-0.410382 -0.025555 0.152710 0.000000 0.500000 0.500000
-0.185984 0.458798 -0.297523 0.000000 0.500000 0.500000
0.373719 -0.437753 -0.293776 0.000000 0.500000 0.500000
-0.084718 0.412654 0.279113 0.300000 0.000000 0.600000
0.295386 -0.117417 0.279116 0.800000 0.200000 0.500000
-0.309459 -0.405854 -0.297523 0.000000 0.500000 0.500000
-0.410405 0.326645 0.204168 0.000000 0.500000 0.500000
0.423661 0.150292 -0.028207 0.000000 0.500000 0.500000
-0.205328 0.315598 0.285490 1.000000 0.000000 0.000000
0.028151 -0.301456 0.274656 0.800000 0.200000 0.500000
0.423808 -0.699240 -0.263111 0.000000 0.500000 0.500000
0.419536 -0.235836 -0.118828 0.000000 0.500000 0.500000
-0.412400 0.041650 0.241521 0.300000 0.000000 0.600000
-0.156589 -0.037003 0.280943 0.300000 0.000000 0.600000
0.030792 0.661918 -0.297523 0.000000 0.500000 0.500000
-0.248803 0.876292 0.268636 0.300000 0.000000 0.600000
0.419536 -0.632401 -0.036822 0.000000 0.500000 0.500000
-0.124072 -0.311445 0.279120 0.300000 0.000000 0.600000
-0.410382 0.229572 -0.173438 0.000000 0.500000 0.500000
0.419536 0.208507 0.142168 0.000000 0.500000 0.500000
0.211578 -0.481260 0.279517 0.800000 0.200000 0.500000
-0.168427 -0.851540 0.049895 0.000000 0.500000 0.500000
-0.304491 0.875310 -0.024248 0.000000 0.500000 0.500000
0.423328 -0.192052 -0.169817 0.000000 0.500000 0.500000
-0.142030 0.692571 0.281622 0.300000 0.000000 0.600000
-0.231591 0.036430 0.280943 0.300000 0.000000 0.600000
-0.083559 0.127074 -0.293677 0.000000 0.500000 0.500000
-0.173423 0.358457 -0.293394 0.000000 0.500000 0.500000
-0.282111 -0.567784 0.280943 0.300000 0.000000 0.600000
0.004569 -0.847748 0.114942 0.000000 0.500000 0.500000
0.416948 0.340241 0.239482 0.000000 0.500000 0.500000
0.284735 0.238583 0.279764 0.800000 0.200000 0.500000
-0.408492 -0.500195 0.240305 0.000000 0.500000 0.500000
0.412656 0.139640 0.227582 0.000000 0.500000 0.500000
-0.007554 0.074999 0.328582 0.600000 0.000000 0.300000
-0.009101 0.834871 0.282011 0.300000 0.000000 0.600000
-0.313046 0.107245 0.249546 1.000000 0.000000 0.000000
0.315684 0.776741 0.280943 0.800000 0.200000 0.500000
0.022789 -0.527049 0.272032 0.800000 0.200000 0.500000
-0.350583 0.664613 0.280943 0.300000 0.000000 0.600000
0.034446 0.285259 -0.293731 0.000000 0.500000 0.500000
-0.337006 0.617284 -0.293731 0.000000 0.500000 0.500000
0.180832 0.879181 -0.049063 0.000000 0.500000 0.500000
0.423328 0.316022 -0.131088 0.000000 0.500000 0.500000
-0.408978 -0.587275 0.092241 0.000000 0.500000 0.500000
0.245211 -0.073722 -0.297523 0.000000 0.500000 0.500000
0.399296 -0.781138 -0.297387 0.000000 0.500000 0.500000
0.175441 0.117497 0.280943 0.800000 0.200000 0.500000
0.277240 0.471653 -0.297523 0.000000 0.500000 0.500000
-0.316655 0.445049 0.279551 0.300000 0.000000 0.600000
0.335047 0.153728 -0.297523 0.000000 0.500000 0.500000
0.412243 -0.484052 0.229107 0.000000 0.500000 0.500000
-0.093203 0.875310 0.043959 0.000000 0.500000 0.500000
-0.180750 -0.339191 0.280943 0.300000 0.000000 0.600000
-0.073872 -0.851525 0.196889 0.000000 0.500000 0.500000
-0.021656 -0.580203 0.279114 0.300000 0.000000 0.600000
-0.170457 -0.790333 0.280507 0.300000 0.000000 0.600000
-0.031448 0.700472 0.279113 0.300000 0.000000 0.600000
-0.146180 -0.847748 -0.075474 0.000000 0.500000 0.500000
-0.413633 0.717206 0.154572 0.000000 0.500000 0.500000
0.419536 0.472067 -0.031263 0.000000 0.500000 0.500000
0.189081 0.871818 0.223018 0.000000 0.500000 0.500000
0.423734 -0.130055 -0.095464 0.000000 0.500000 0.500000
0.289337 0.779462 -0.293731 0.000000 0.500000 0.500000
0.423328 0.058662 -0.148320 0.000000 0.500000 0.500000
-0.401798 0.407989 0.274237 0.300000 0.000000 0.600000
-0.131494 0.568483 -0.293731 0.000000 0.500000 0.500000
-0.010255 0.534190 0.222685 0.000000 0.500000 0.500000
-0.220683 0.095810 0.271694 1.000000 0.000000 0.000000
-0.173133 -0.711523 -0.297523 0.000000 0.500000 0.500000
0.423299 0.234480 0.199094 0.000000 0.500000 0.500000
0.093081 0.878121 0.254263 0.800000 0.200000 0.500000
0.337179 0.875310 0.034938 0.000000 0.500000 0.500000
0.230227 0.115788 -0.293731 0.000000 0.500000 0.500000
0.363406 -0.851540 0.012815 0.000000 0.500000 0.500000
0.419536 -0.069128 -0.001960 0.000000 0.500000 0.500000
-0.410382 0.586443 -0.154984 0.000000 0.500000 0.500000
0.385615 -0.851528 -0.241742 0.000000 0.500000 0.500000
0.226659 0.268791 -0.297523 0.000000 0.500000 0.500000
-0.362927 -0.847435 0.176643 0.000000 0.500000 0.500000
-0.403263 -0.037335 0.225860 0.000000 0.500000 0.500000
-0.342705 0.354744 -0.297523 0.000000 0.500000 0.500000
0.423328 0.753031 -0.005472 0.000000 0.500000 0.500000
0.419536 -0.560047 -0.138539 0.000000 0.500000 0.500000
-0.413041 -0.122122 0.007109 0.000000 0.500000 0.500000
-0.115493 -0.851540 -0.185401 0.000000 0.500000 0.500000
-0.374442 0.311425 -0.293489 0.000000 0.500000 0.500000
0.011670 0.642651 0.220014 0.000000 0.500000 0.500000
0.423328 0.726187 -0.141383 0.000000 0.500000 0.500000
-0.053325 0.875310 0.099768 0.000000 0.500000 0.500000
0.081116 -0.851540 -0.228492 0.000000 0.500000 0.500000
-0.411647 0.878204 0.047308 0.000000 0.500000 0.500000
0.031688 0.406477 -0.293731 0.000000 0.500000 0.500000
-0.414173 -0.215350 -0.170382 0.000000 0.500000 0.500000
0.038024 0.868770 0.235039 0.000000 0.500000 0.500000
0.017968 0.643454 0.329964 0.000000 0.000000 1.000000
-0.414173 -0.336805 -0.041709 0.000000 0.500000 0.500000
-0.313046 0.200620 0.262035 1.000000 0.000000 0.000000
0.094045 0.156717 0.280943 0.800000 0.200000 0.500000
0.423714 -0.558487 -0.240212 0.000000 0.500000 0.500000
0.237669 -0.850036 0.226265 0.000000 0.500000 0.500000
-0.414173 -0.322216 -0.148350 0.000000 0.500000 0.500000
-0.268168 -0.746314 0.279114 0.300000 0.000000 0.600000
-0.018489 -0.651133 0.334014 0.600000 0.000000 0.300000
-0.059513 0.012262 0.279114 0.300000 0.000000 0.600000
0.272247 0.192473 -0.293731 0.000000 0.500000 0.500000
0.085505 -0.799636 0.228276 0.000000 0.500000 0.500000
-0.404057 -0.718498 -0.093729 0.000000 0.500000 0.500000
0.423328 -0.077465 -0.218662 0.000000 0.500000 0.500000
-0.128795 0.656592 -0.293731 0.000000 0.500000 0.500000
-0.349594 -0.847748 0.084730 0.000000 0.500000 0.500000
0.030842 -0.676226 0.275808 0.800000 0.200000 0.500000
0.002440 0.433617 0.219327 0.000000 0.500000 0.500000
-0.408541 0.608595 -0.246307 0.000000 0.500000 0.500000
0.002808 -0.737442 0.222318 0.000000 0.500000 0.500000
-0.033095 0.764785 -0.293731 0.000000 0.500000 0.500000
0.220908 0.162005 0.281032 0.800000 0.200000 0.500000
0.414105 -0.474893 -0.292202 0.000000 0.500000 0.500000
-0.168599 -0.608178 -0.293731 0.000000 0.500000 0.500000
0.423015 0.263583 -0.279335 0.000000 0.500000 0.500000
0.288820 0.121493 0.280943 0.800000 0.200000 0.500000
-0.410398 0.338384 -0.236377 0.000000 0.500000 0.500000
0.378524 0.342374 -0.293802 0.000000 0.500000 0.500000
0.384734 0.452609 0.279113 0.800000 0.200000 0.500000
0.419675 -0.334548 0.207779 0.000000 0.500000 0.500000
-0.365407 0.725075 0.279115 0.300000 0.000000 0.600000
0.343202 0.494095 0.279877 0.800000 0.200000 0.500000
-0.253591 -0.021007 -0.297523 0.000000 0.500000 0.500000
0.070987 -0.260335 0.279114 0.800000 0.200000 0.500000
0.415551 0.096379 -0.257368 0.000000 0.500000 0.500000
-0.413106 0.495165 0.272422 0.300000 0.000000 0.600000
0.277815 0.875311 -0.233483 0.000000 0.500000 0.500000
0.257848 -0.668066 0.280943 0.800000 0.200000 0.500000
0.422256 0.544316 0.246507 0.800000 0.200000 0.500000
0.420578 -0.687301 0.246430 0.800000 0.200000 0.500000
-0.332709 -0.115205 -0.297523 0.000000 0.500000 0.500000
-0.042127 -0.341720 0.323475 0.600000 0.000000 0.300000
0.115832 0.879242 0.041950 0.000000 0.500000 0.500000
-0.412784 0.311398 -0.078666 0.000000 0.500000 0.500000
-0.245315 0.103365 -0.297523 0.000000 0.500000 0.500000
-0.396230 -0.528246 -0.292986 0.000000 0.500000 0.500000
0.419536 -0.168842 0.008498 0.000000 0.500000 0.500000
0.245087 0.542804 0.280943 0.800000 0.200000 0.500000
-0.410382 0.503089 0.167530 0.000000 0.500000 0.500000
0.046590 -0.730996 0.278888 0.800000 0.200000 0.500000
-0.352204 0.081567 -0.293731 0.000000 0.500000 0.500000
-0.412843 0.618988 -0.030391 0.000000 0.500000 0.500000
0.334132 0.658784 0.279113 0.800000 0.200000 0.500000
0.405340 -0.370207 -0.277446 0.000000 0.500000 0.500000
-0.030254 -0.265849 0.279114 0.300000 0.000000 0.600000
-0.414173 -0.496440 -0.082905 0.000000 0.500000 0.500000
-0.410382 0.147953 0.168876 0.000000 0.500000 0.500000
0.099764 0.064936 -0.297523 0.000000 0.500000 0.500000
0.423354 -0.398351 -0.214268 0.000000 0.500000 0.500000
0.423328 -0.416014 -0.013179 0.000000 0.500000 0.500000
0.423328 -0.314992 0.124693 0.000000 0.500000 0.500000
-0.410382 0.398409 -0.045797 0.000000 0.500000 0.500000
0.375962 0.401286 0.279113 0.800000 0.200000 0.500000
-0.410407 -0.793271 -0.233874 0.000000 0.500000 0.500000
0.423537 -0.794170 -0.137854 0.000000 0.500000 0.500000
-0.015820 0.246925 0.332741 0.600000 0.000000 0.300000
0.260199 -0.600282 -0.293656 0.000000 0.500000 0.500000
-0.107568 0.879577 -0.273972 0.000000 0.500000 0.500000
-0.304950 0.875310 0.137100 0.000000 0.500000 0.500000
-0.174054 -0.420314 -0.297523 0.000000 0.500000 0.500000
0.419536 0.178104 -0.071802 0.000000 0.500000 0.500000
0.259943 0.377116 -0.293731 0.000000 0.500000 0.500000
0.422351 -0.417361 0.262118 0.800000 0.200000 0.500000
-0.049113 -0.847748 -0.134837 0.000000 0.500000 0.500000
-0.313665 -0.490191 0.279112 0.300000 0.000000 0.600000
-0.182055 0.833511 -0.292807 0.000000 0.500000 0.500000
-0.315053 0.562856 0.280943 0.300000 0.000000 0.600000
0.182213 -0.248866 -0.293511 0.000000 0.500000 0.500000
0.005046 0.025422 0.218881 0.000000 0.500000 0.500000
0.004556 0.875310 -0.091106 0.000000 0.500000 0.500000
0.422227 -0.838384 0.057201 0.000000 0.500000 0.500000
0.305468 -0.851540 -0.146752 0.000000 0.500000 0.500000
0.265328 0.026824 -0.297523 0.000000 0.500000 0.500000
0.031815 -0.670371 -0.297523 0.000000 0.500000 0.500000
0.423328 0.369872 -0.190583 0.000000 0.500000 0.500000
-0.092488 0.015192 -0.293731 0.000000 0.500000 0.500000
0.423328 -0.126555 0.118918 0.000000 0.500000 0.500000
-0.209403 -0.519647 0.279112 0.300000 0.000000 0.600000
0.419536 0.540804 0.006458 0.000000 0.500000 0.500000
-0.042267 0.879101 -0.175418 0.000000 0.500000 0.500000
-0.359775 -0.734110 0.280943 0.300000 0.000000 0.600000
-0.384870 0.031500 -0.294552 0.000000 0.500000 0.500000
-0.044894 0.652887 0.323456 0.600000 0.000000 0.300000
0.374203 0.754735 -0.297522 0.000000 0.500000 0.500000
0.109421 0.634061 0.280943 0.800000 0.200000 0.500000
0.300351 0.879101 0.163441 0.000000 0.500000 0.500000
-0.215719 -0.779786 0.230730 0.000000 0.500000 0.500000
