ply
format ascii 1.0
element vertex 643
property float x
property float y
property float z
property float nx
property float ny
property float nz
property uchar red
property uchar green
property uchar blue
property float opacity
end_header
-0.411777 -0.416851 0.198177 -1.000000 0.000000 0.000000 11 11 11 1.000000
-0.368487 0.749666 -0.295128 0.000000 -0.000000 1.000000 11 11 11 1.000000
0.243923 0.105295 0.280528 0.000000 0.000000 -1.000000 11 11 11 1.000000
-0.411777 0.861622 -0.251067 -1.000000 0.000000 0.000000 11 11 11 1.000000
0.421932 -0.369345 -0.165739 -1.000000 0.000000 0.000000 11 11 11 1.000000
0.328937 0.877707 0.266950 0.000000 -1.000000 -0.000000 11 11 11 1.000000
-0.195386 -0.737010 -0.295128 0.000000 0.000000 -1.000000 11 11 11 1.000000
-0.207911 0.132950 0.220977 0.000000 -0.000000 1.000000 34 34 34 1.000000
-0.411777 -0.434912 -0.272033 1.000000 0.000000 0.000000 11 11 11 1.000000
-0.115745 0.862525 -0.295128 0.000000 -0.000000 1.000000 11 11 11 1.000000
0.154498 -0.286028 0.280528 0.000000 0.000000 -1.000000 11 11 11 1.000000
0.390961 0.494665 0.280528 0.000000 -0.000000 1.000000 11 11 11 1.000000
0.141856 -0.074532 0.280528 0.000000 0.000000 -1.000000 11 11 11 1.000000
-0.025903 0.554973 0.337909 0.061060 0.000000 -0.998134 11 11 11 1.000000
0.421932 -0.374546 0.049984 1.000000 0.000000 0.000000 11 11 11 1.000000
0.409654 -0.548982 -0.295128 0.000000 0.000000 -1.000000 11 11 11 1.000000
-0.053587 0.645749 0.280528 0.000000 -0.000000 1.000000 11 11 11 1.000000
0.248313 0.877707 0.213555 0.000000 -1.000000 -0.000000 11 11 11 1.000000
-0.002690 -0.826452 0.220977 0.000000 0.000000 -1.000000 11 11 11 1.000000
0.018146 0.372454 -0.295128 0.000000 -0.000000 1.000000 11 11 11 1.000000
-0.004848 0.712815 0.280324 -1.000000 -0.000000 0.000000 188 188 188 1.000000
0.115487 0.877707 0.069873 0.000000 -1.000000 -0.000000 11 11 11 1.000000
-0.004848 0.502426 0.258499 1.000000 0.000000 -0.000000 163 163 163 1.000000
0.113886 0.224174 0.280528 0.000000 0.000000 -1.000000 11 11 11 1.000000
-0.165311 0.568714 -0.295128 0.000000 -0.000000 1.000000 11 11 11 1.000000
0.421932 -0.726996 -0.194565 -1.000000 0.000000 0.000000 11 11 11 1.000000
-0.411777 -0.103999 0.137765 1.000000 0.000000 0.000000 11 11 11 1.000000
0.421932 -0.058982 0.256391 1.000000 0.000000 0.000000 11 11 11 1.000000
0.421932 0.678916 0.154257 1.000000 0.000000 0.000000 11 11 11 1.000000
0.420268 0.273125 0.221196 0.173852 -0.000000 0.984772 0 0 0 1.000000
0.245194 0.073277 -0.295128 0.000000 0.000000 -1.000000 11 11 11 1.000000
-0.129079 -0.015070 0.280528 0.000000 -0.000000 1.000000 11 11 11 1.000000
0.012458 -0.849144 -0.034320 0.000000 -1.000000 -0.000000 11 11 11 1.000000
-0.194414 0.751625 0.280528 0.000000 0.000000 -1.000000 11 11 11 1.000000
-0.218719 -0.792050 -0.295128 0.000000 -0.000000 1.000000 11 11 11 1.000000
0.421932 -0.789103 -0.276605 1.000000 0.000000 0.000000 11 11 11 1.000000
-0.389585 0.147297 0.280528 0.000000 0.000000 -1.000000 11 11 11 1.000000
0.237197 0.227842 -0.295128 0.000000 0.000000 -1.000000 11 11 11 1.000000
0.122813 0.090477 0.280528 0.000000 -0.000000 1.000000 11 11 11 1.000000
-0.411777 0.238782 0.159006 1.000000 0.000000 0.000000 11 11 11 1.000000
0.225315 -0.334479 0.280528 0.000000 -0.000000 1.000000 11 11 11 1.000000
-0.411777 0.311781 -0.111943 1.000000 0.000000 0.000000 11 11 11 1.000000
0.062939 0.404433 0.280528 0.000000 0.000000 -1.000000 11 11 11 1.000000
0.397320 -0.402820 0.280528 0.000000 -0.000000 1.000000 11 11 11 1.000000
0.050151 0.215197 0.280528 0.000000 -0.000000 1.000000 11 11 11 1.000000
-0.276173 -0.290860 0.280528 0.000000 -0.000000 1.000000 11 11 11 1.000000
0.001695 -0.066522 -0.295128 0.000000 0.000000 -1.000000 11 11 11 1.000000
-0.397048 0.278662 -0.295128 0.000000 0.000000 -1.000000 11 11 11 1.000000
0.207795 -0.474596 0.280528 0.000000 0.000000 -1.000000 11 11 11 1.000000
-0.331503 0.094404 -0.295128 0.000000 0.000000 -1.000000 11 11 11 1.000000
0.305672 0.877707 0.116180 0.000000 -1.000000 -0.000000 11 11 11 1.000000
-0.411777 0.390632 -0.018812 -1.000000 0.000000 0.000000 11 11 11 1.000000
-0.405084 0.210617 0.238288 0.637346 -0.000000 0.770578 0 0 0 1.000000
-0.176808 0.877707 0.115864 0.000000 1.000000 0.000000 11 11 11 1.000000
0.176649 0.558200 0.280528 0.000000 0.000000 -1.000000 11 11 11 1.000000
0.421932 -0.679767 -0.191064 -1.000000 0.000000 0.000000 11 11 11 1.000000
-0.411777 -0.714804 0.089490 1.000000 0.000000 0.000000 11 11 11 1.000000
-0.193152 -0.645169 -0.295128 0.000000 -0.000000 1.000000 11 11 11 1.000000
-0.411777 0.016879 -0.156353 1.000000 0.000000 0.000000 11 11 11 1.000000
-0.411777 0.356279 -0.241237 -1.000000 0.000000 0.000000 11 11 11 1.000000
-0.083030 0.877707 0.257101 0.000000 1.000000 0.000000 11 11 11 1.000000
0.421932 -0.788854 0.070880 -1.000000 0.000000 0.000000 11 11 11 1.000000
0.421932 -0.770106 -0.184156 -1.000000 0.000000 0.000000 11 11 11 1.000000
-0.411777 0.327124 -0.028239 1.000000 0.000000 0.000000 11 11 11 1.000000
0.421932 0.435395 0.057852 -1.000000 0.000000 0.000000 11 11 11 1.000000
0.421932 0.605454 0.171547 -1.000000 0.000000 0.000000 11 11 11 1.000000
-0.411777 0.747114 0.049458 1.000000 0.000000 0.000000 11 11 11 1.000000
-0.411777 -0.163670 0.071848 -1.000000 0.000000 0.000000 11 11 11 1.000000
-0.061751 0.736581 0.280528 0.000000 -0.000000 1.000000 11 11 11 1.000000
0.126165 0.751679 0.280528 0.000000 0.000000 -1.000000 11 11 11 1.000000
-0.001889 0.621554 0.220977 0.000000 0.000000 -1.000000 11 11 11 1.000000
0.421932 -0.650276 -0.158976 -1.000000 0.000000 0.000000 11 11 11 1.000000
0.154815 -0.533034 -0.295128 0.000000 0.000000 -1.000000 11 11 11 1.000000
-0.194363 -0.545344 -0.295128 0.000000 0.000000 -1.000000 11 11 11 1.000000
-0.411777 -0.034919 -0.052514 -1.000000 0.000000 0.000000 11 11 11 1.000000
-0.004848 0.168313 0.255085 -1.000000 -0.000000 0.000000 184 184 184 1.000000
0.421932 0.637141 0.071759 -1.000000 0.000000 0.000000 11 11 11 1.000000
-0.068480 0.517112 -0.295128 0.000000 -0.000000 1.000000 11 11 11 1.000000
-0.361314 -0.506307 -0.295128 0.000000 -0.000000 1.000000 11 11 11 1.000000
0.015002 -0.012698 0.247475 1.000000 0.000000 0.000000 11 11 11 1.000000
0.421932 -0.126097 -0.263651 1.000000 0.000000 0.000000 11 11 11 1.000000
-0.387826 -0.683416 0.280528 0.000000 0.000000 -1.000000 11 11 11 1.000000
-0.305932 -0.469050 -0.295128 0.000000 -0.000000 1.000000 11 11 11 1.000000
0.229030 0.697873 -0.295128 0.000000 -0.000000 1.000000 11 11 11 1.000000
-0.411777 0.862512 0.181172 -1.000000 0.000000 0.000000 11 11 11 1.000000
0.015002 -0.776810 0.278602 1.000000 0.000000 0.000000 11 11 11 1.000000
0.181562 -0.735432 0.280528 0.000000 0.000000 -1.000000 11 11 11 1.000000
-0.362591 -0.429221 0.280528 0.000000 0.000000 -1.000000 11 11 11 1.000000
0.421932 -0.619427 -0.081378 1.000000 0.000000 0.000000 11 11 11 1.000000
0.397258 0.168062 0.280528 0.000000 -0.000000 1.000000 11 11 11 1.000000
-0.242320 0.564323 0.280528 0.000000 -0.000000 1.000000 11 11 11 1.000000
-0.411777 -0.532695 -0.256330 -1.000000 0.000000 0.000000 11 11 11 1.000000
-0.411777 -0.314005 0.033509 1.000000 0.000000 0.000000 11 11 11 1.000000
-0.411777 0.773847 0.191525 1.000000 0.000000 0.000000 11 11 11 1.000000
-0.031961 -0.468019 0.336512 -0.368974 -0.000000 0.929440 11 11 11 1.000000
-0.411777 -0.389136 0.096749 -1.000000 0.000000 0.000000 11 11 11 1.000000
0.016666 0.731888 0.280528 0.000000 0.000000 -1.000000 11 11 11 1.000000
0.079874 -0.643481 0.280528 0.000000 0.000000 -1.000000 11 11 11 1.000000
0.006656 0.450333 -0.295128 0.000000 -0.000000 1.000000 11 11 11 1.000000
0.421932 0.004737 -0.024860 -1.000000 0.000000 0.000000 11 11 11 1.000000
-0.411777 0.668441 -0.114290 1.000000 0.000000 0.000000 11 11 11 1.000000
0.138938 -0.849144 0.054024 0.000000 1.000000 0.000000 11 11 11 1.000000
0.024589 0.581567 0.335149 -0.518398 -0.000000 0.855139 11 11 11 1.000000
-0.411777 0.478313 0.158342 -1.000000 0.000000 0.000000 11 11 11 1.000000
-0.297154 0.554437 -0.295128 0.000000 0.000000 -1.000000 11 11 11 1.000000
0.089951 -0.024643 0.280528 0.000000 0.000000 -1.000000 11 11 11 1.000000
0.356244 -0.335439 0.280528 0.000000 -0.000000 1.000000 11 11 11 1.000000
-0.113374 0.268651 -0.295128 0.000000 -0.000000 1.000000 11 11 11 1.000000
0.278459 0.439433 -0.295128 0.000000 0.000000 -1.000000 11 11 11 1.000000
0.015352 0.863387 0.240781 -0.139662 0.000000 -0.990199 0 0 0 1.000000
0.015002 -0.477155 0.253922 1.000000 0.000000 0.000000 11 11 11 1.000000
0.421932 -0.086159 0.086165 1.000000 0.000000 0.000000 11 11 11 1.000000
0.415868 -0.676638 0.223151 0.573434 -0.000000 0.819252 0 0 0 1.000000
0.172448 0.729842 0.280528 0.000000 -0.000000 1.000000 11 11 11 1.000000
-0.158768 -0.207975 0.280528 0.000000 0.000000 -1.000000 11 11 11 1.000000
0.421932 -0.166251 0.150819 1.000000 0.000000 0.000000 11 11 11 1.000000
-0.229099 0.877707 0.146823 0.000000 -1.000000 -0.000000 11 11 11 1.000000
0.051775 -0.022543 0.320228 0.000000 0.000000 -1.000000 255 255 255 1.000000
0.219533 -0.379672 -0.295128 0.000000 -0.000000 1.000000 11 11 11 1.000000
0.416084 0.827634 0.280528 0.000000 -0.000000 1.000000 11 11 11 1.000000
-0.011171 -0.170301 -0.295128 0.000000 0.000000 -1.000000 11 11 11 1.000000
0.421932 -0.737744 0.184518 -1.000000 0.000000 0.000000 11 11 11 1.000000
0.176120 0.625338 -0.295128 0.000000 -0.000000 1.000000 11 11 11 1.000000
-0.411777 -0.735048 -0.087857 1.000000 0.000000 0.000000 11 11 11 1.000000
0.398023 -0.849144 -0.158405 0.000000 -1.000000 -0.000000 11 11 11 1.000000
-0.031773 -0.849144 -0.073329 0.000000 1.000000 0.000000 11 11 11 1.000000
-0.001277 -0.327480 0.220977 0.000000 -0.000000 1.000000 11 11 11 1.000000
-0.301888 -0.849144 -0.130566 0.000000 -1.000000 -0.000000 11 11 11 1.000000
-0.075450 0.877707 0.103642 0.000000 1.000000 0.000000 11 11 11 1.000000
0.010020 -0.849144 0.068100 0.000000 -1.000000 -0.000000 11 11 11 1.000000
-0.316130 0.029731 0.280528 0.000000 -0.000000 1.000000 11 11 11 1.000000
0.421932 -0.211593 -0.187853 -1.000000 0.000000 0.000000 11 11 11 1.000000
0.227814 0.185920 0.280528 0.000000 -0.000000 1.000000 11 11 11 1.000000
-0.411777 -0.368363 -0.163875 1.000000 0.000000 0.000000 11 11 11 1.000000
-0.181145 0.606113 0.280528 0.000000 -0.000000 1.000000 11 11 11 1.000000
0.421932 0.520888 0.268489 -1.000000 0.000000 0.000000 11 11 11 1.000000
-0.114001 0.770551 0.280528 0.000000 -0.000000 1.000000 11 11 11 1.000000
-0.411777 -0.726062 0.279804 -1.000000 0.000000 0.000000 11 11 11 1.000000
0.015002 -0.566920 0.266846 1.000000 0.000000 0.000000 11 11 11 1.000000
0.421932 -0.689171 0.097601 1.000000 0.000000 0.000000 11 11 11 1.000000
0.421932 0.382964 0.199982 1.000000 0.000000 0.000000 11 11 11 1.000000
0.090906 -0.114287 -0.295128 0.000000 -0.000000 1.000000 11 11 11 1.000000
0.291879 -0.428433 0.280528 0.000000 -0.000000 1.000000 11 11 11 1.000000
-0.411777 0.613036 0.189061 1.000000 0.000000 0.000000 11 11 11 1.000000
0.113021 -0.840974 0.230902 0.000000 -0.000000 1.000000 0 0 0 1.000000
-0.219940 -0.849144 -0.192209 0.000000 1.000000 0.000000 11 11 11 1.000000
-0.411777 -0.225667 -0.000074 -1.000000 0.000000 0.000000 11 11 11 1.000000
-0.221080 0.815189 0.280528 0.000000 0.000000 -1.000000 11 11 11 1.000000
-0.075419 0.206169 -0.295128 0.000000 0.000000 -1.000000 11 11 11 1.000000
-0.411777 -0.014809 0.266650 -1.000000 0.000000 0.000000 11 11 11 1.000000
-0.365104 0.877707 -0.037192 0.000000 1.000000 0.000000 11 11 11 1.000000
-0.387889 0.664279 0.280528 0.000000 0.000000 -1.000000 11 11 11 1.000000
-0.049123 -0.666523 -0.295128 0.000000 0.000000 -1.000000 11 11 11 1.000000
-0.389751 0.779500 0.280528 0.000000 -0.000000 1.000000 11 11 11 1.000000
-0.182740 0.710518 -0.295128 0.000000 0.000000 -1.000000 11 11 11 1.000000
0.185444 -0.486511 -0.295128 0.000000 0.000000 -1.000000 11 11 11 1.000000
0.254244 -0.080211 -0.295128 0.000000 -0.000000 1.000000 11 11 11 1.000000
0.421932 0.807127 -0.107937 -1.000000 0.000000 0.000000 11 11 11 1.000000
0.421932 -0.549945 0.025626 -1.000000 0.000000 0.000000 11 11 11 1.000000
-0.411777 0.725498 -0.111351 -1.000000 0.000000 0.000000 11 11 11 1.000000
0.412607 0.801411 0.234104 0.937853 0.000000 -0.347034 0 0 0 1.000000
0.058995 -0.569133 0.280528 0.000000 -0.000000 1.000000 11 11 11 1.000000
0.421932 -0.122412 0.192731 -1.000000 0.000000 0.000000 11 11 11 1.000000
0.421932 0.111895 -0.019087 1.000000 0.000000 0.000000 11 11 11 1.000000
-0.411777 -0.434268 0.119895 -1.000000 0.000000 0.000000 11 11 11 1.000000
0.094676 0.367848 0.280528 0.000000 -0.000000 1.000000 11 11 11 1.000000
-0.411777 0.360251 0.086416 -1.000000 0.000000 0.000000 11 11 11 1.000000
0.053537 -0.474823 0.280528 0.000000 0.000000 -1.000000 11 11 11 1.000000
-0.004848 -0.106364 0.260979 -1.000000 -0.000000 0.000000 194 194 194 1.000000
-0.207218 -0.444695 -0.295128 0.000000 -0.000000 1.000000 11 11 11 1.000000
-0.392425 0.379566 0.280528 0.000000 0.000000 -1.000000 11 11 11 1.000000
-0.297614 -0.570062 0.280528 0.000000 0.000000 -1.000000 11 11 11 1.000000
0.377949 -0.442279 0.280528 0.000000 -0.000000 1.000000 11 11 11 1.000000
-0.003590 -0.363728 0.220977 0.000000 0.000000 -1.000000 11 11 11 1.000000
-0.411777 0.813556 0.260233 1.000000 0.000000 0.000000 11 11 11 1.000000
-0.104475 0.732520 0.280528 0.000000 -0.000000 1.000000 11 11 11 1.000000
-0.037823 0.877707 0.079601 0.000000 -1.000000 -0.000000 11 11 11 1.000000
-0.411777 -0.289830 0.052119 1.000000 0.000000 0.000000 11 11 11 1.000000
0.421932 -0.140928 -0.152033 1.000000 0.000000 0.000000 11 11 11 1.000000
0.421932 0.749908 -0.045226 1.000000 0.000000 0.000000 11 11 11 1.000000
-0.192233 -0.497641 0.280528 0.000000 0.000000 -1.000000 11 11 11 1.000000
-0.221717 0.877707 -0.078227 0.000000 -1.000000 -0.000000 11 11 11 1.000000
-0.411777 0.666872 0.135425 1.000000 0.000000 0.000000 11 11 11 1.000000
-0.411777 -0.008737 0.094764 1.000000 0.000000 0.000000 11 11 11 1.000000
-0.372545 0.877707 0.146213 0.000000 -1.000000 -0.000000 11 11 11 1.000000
0.241223 0.877707 -0.121104 0.000000 1.000000 0.000000 11 11 11 1.000000
-0.411777 0.137903 0.044801 1.000000 0.000000 0.000000 11 11 11 1.000000
-0.411777 0.178846 -0.122623 -1.000000 0.000000 0.000000 11 11 11 1.000000
0.104219 -0.615098 -0.295128 0.000000 -0.000000 1.000000 11 11 11 1.000000
-0.289007 0.095810 0.258972 0.000000 1.000000 0.000000 34 34 34 1.000000
0.159900 0.877707 -0.066052 0.000000 1.000000 0.000000 11 11 11 1.000000
0.207330 0.877707 -0.265407 0.000000 1.000000 0.000000 11 11 11 1.000000
0.421932 0.012893 0.151044 1.000000 0.000000 0.000000 11 11 11 1.000000
0.309697 0.446526 -0.295128 0.000000 0.000000 -1.000000 11 11 11 1.000000
-0.208061 -0.745188 0.280528 0.000000 0.000000 -1.000000 11 11 11 1.000000
-0.411777 0.496805 0.056038 -1.000000 0.000000 0.000000 11 11 11 1.000000
0.195355 0.877707 0.211937 0.000000 -1.000000 -0.000000 11 11 11 1.000000
0.277823 -0.829293 0.228210 0.000000 -1.000000 -0.000000 0 0 0 1.000000
0.258902 -0.849144 -0.276864 0.000000 -1.000000 -0.000000 11 11 11 1.000000
0.421932 -0.770460 0.115302 -1.000000 0.000000 0.000000 11 11 11 1.000000
0.073552 -0.590768 -0.295128 0.000000 -0.000000 1.000000 11 11 11 1.000000
0.244430 0.363488 -0.295128 0.000000 0.000000 -1.000000 11 11 11 1.000000
-0.411777 -0.402953 -0.199468 1.000000 0.000000 0.000000 11 11 11 1.000000
0.273777 0.338682 0.280528 0.000000 0.000000 -1.000000 11 11 11 1.000000
-0.311214 0.266039 -0.295128 0.000000 -0.000000 1.000000 11 11 11 1.000000
-0.026399 -0.193188 0.337844 0.086319 0.000000 -0.996268 11 11 11 1.000000
-0.154142 0.518360 -0.295128 0.000000 0.000000 -1.000000 11 11 11 1.000000
0.015002 0.244252 0.275178 1.000000 0.000000 0.000000 11 11 11 1.000000
-0.135484 -0.181219 0.280528 0.000000 0.000000 -1.000000 11 11 11 1.000000
0.227176 0.034815 -0.295128 0.000000 -0.000000 1.000000 11 11 11 1.000000
0.421932 0.402568 -0.106296 -1.000000 0.000000 0.000000 11 11 11 1.000000
0.411873 0.206572 0.280528 0.000000 0.000000 -1.000000 11 11 11 1.000000
-0.411777 0.534579 0.008699 -1.000000 0.000000 0.000000 11 11 11 1.000000
0.421932 0.229515 -0.294569 -1.000000 0.000000 0.000000 11 11 11 1.000000
-0.089403 -0.817143 -0.295128 0.000000 -0.000000 1.000000 11 11 11 1.000000
-0.411777 -0.120460 -0.163228 1.000000 0.000000 0.000000 11 11 11 1.000000
0.421932 0.732426 -0.195855 1.000000 0.000000 0.000000 11 11 11 1.000000
0.421932 -0.351235 -0.064403 1.000000 0.000000 0.000000 11 11 11 1.000000
-0.177349 0.673355 -0.295128 0.000000 -0.000000 1.000000 11 11 11 1.000000
0.421932 -0.156644 -0.123901 -1.000000 0.000000 0.000000 11 11 11 1.000000
-0.411777 0.021391 0.004461 -1.000000 0.000000 0.000000 11 11 11 1.000000
0.149777 -0.454561 -0.295128 0.000000 0.000000 -1.000000 11 11 11 1.000000
0.039310 -0.403448 0.337481 -0.225462 0.000000 -0.974252 11 11 11 1.000000
0.066736 -0.206728 0.280528 0.000000 -0.000000 1.000000 11 11 11 1.000000
-0.411777 0.286115 0.280478 1.000000 0.000000 0.000000 11 11 11 1.000000
-0.308170 -0.849144 0.204584 0.000000 1.000000 0.000000 11 11 11 1.000000
0.421932 0.806976 0.051172 1.000000 0.000000 0.000000 11 11 11 1.000000
-0.268542 -0.261749 -0.295128 0.000000 0.000000 -1.000000 11 11 11 1.000000
0.421932 -0.523462 0.278111 -1.000000 0.000000 0.000000 11 11 11 1.000000
0.015002 -0.244741 0.252821 1.000000 0.000000 0.000000 11 11 11 1.000000
-0.411777 -0.600797 0.137485 -1.000000 0.000000 0.000000 11 11 11 1.000000
0.128693 -0.315523 0.280528 0.000000 0.000000 -1.000000 11 11 11 1.000000
-0.411777 0.331888 -0.138144 1.000000 0.000000 0.000000 11 11 11 1.000000
0.057909 0.877707 -0.108826 0.000000 1.000000 0.000000 11 11 11 1.000000
-0.050492 -0.260583 -0.295128 0.000000 -0.000000 1.000000 11 11 11 1.000000
0.421932 0.239532 -0.169970 -1.000000 0.000000 0.000000 11 11 11 1.000000
0.337673 -0.649055 0.280528 0.000000 -0.000000 1.000000 11 11 11 1.000000
0.421932 -0.381373 0.266595 -1.000000 0.000000 0.000000 11 11 11 1.000000
0.421932 -0.191140 0.211345 -1.000000 0.000000 0.000000 11 11 11 1.000000
-0.275793 0.271129 -0.295128 0.000000 -0.000000 1.000000 11 11 11 1.000000
-0.287018 0.877707 0.009807 0.000000 -1.000000 -0.000000 11 11 11 1.000000
0.397647 -0.094093 -0.295128 0.000000 -0.000000 1.000000 11 11 11 1.000000
-0.411777 -0.570240 -0.092831 1.000000 0.000000 0.000000 11 11 11 1.000000
0.148522 -0.558386 0.280528 0.000000 0.000000 -1.000000 11 11 11 1.000000
0.270862 -0.849144 0.192762 0.000000 1.000000 0.000000 11 11 11 1.000000
-0.411777 -0.306658 0.079193 -1.000000 0.000000 0.000000 11 11 11 1.000000
0.023252 0.227267 0.320228 0.000000 -0.000000 1.000000 170 176 204 1.000000
0.210951 -0.467966 -0.295128 0.000000 0.000000 -1.000000 11 11 11 1.000000
-0.411777 -0.366917 0.203378 -1.000000 0.000000 0.000000 11 11 11 1.000000
-0.099780 0.107278 0.285490 0.000000 -0.000000 1.000000 34 34 34 1.000000
-0.411777 0.581697 0.106137 1.000000 0.000000 0.000000 11 11 11 1.000000
0.015002 -0.034349 0.260524 1.000000 0.000000 0.000000 11 11 11 1.000000
0.139360 -0.668325 -0.295128 0.000000 0.000000 -1.000000 11 11 11 1.000000
0.148683 0.015027 0.280528 0.000000 0.000000 -1.000000 11 11 11 1.000000
0.101378 -0.710877 0.280528 0.000000 -0.000000 1.000000 11 11 11 1.000000
-0.411777 -0.462730 0.190540 1.000000 0.000000 0.000000 11 11 11 1.000000
0.039239 0.850440 0.337491 -0.221922 0.000000 -0.975064 11 11 11 1.000000
-0.086368 0.579370 -0.295128 0.000000 -0.000000 1.000000 11 11 11 1.000000
-0.381895 0.706892 -0.295128 0.000000 0.000000 -1.000000 11 11 11 1.000000
0.352079 0.715831 -0.295128 0.000000 -0.000000 1.000000 11 11 11 1.000000
0.421932 0.860301 -0.173627 1.000000 0.000000 0.000000 11 11 11 1.000000
-0.411777 0.028576 -0.106243 1.000000 0.000000 0.000000 11 11 11 1.000000
-0.279046 0.490244 0.280528 0.000000 -0.000000 1.000000 11 11 11 1.000000
-0.033197 0.307938 -0.295128 0.000000 -0.000000 1.000000 11 11 11 1.000000
-0.411777 -0.454953 0.066041 -1.000000 0.000000 0.000000 11 11 11 1.000000
-0.226103 -0.309190 -0.295128 0.000000 -0.000000 1.000000 11 11 11 1.000000
-0.074582 -0.716258 -0.295128 0.000000 -0.000000 1.000000 11 11 11 1.000000
0.008126 0.877707 0.017774 0.000000 -1.000000 -0.000000 11 11 11 1.000000
0.135396 0.506661 -0.295128 0.000000 -0.000000 1.000000 11 11 11 1.000000
0.401505 -0.849144 -0.087343 0.000000 1.000000 0.000000 11 11 11 1.000000
-0.411777 -0.607429 0.014168 -1.000000 0.000000 0.000000 11 11 11 1.000000
-0.058630 0.316511 0.284658 -1.000000 0.000000 0.000000 170 176 204 1.000000
0.421932 -0.734327 0.035608 1.000000 0.000000 0.000000 11 11 11 1.000000
-0.184553 0.756340 -0.295128 0.000000 0.000000 -1.000000 11 11 11 1.000000
0.150178 0.343168 0.280528 0.000000 0.000000 -1.000000 11 11 11 1.000000
0.186786 0.877707 0.243819 0.000000 -1.000000 -0.000000 11 11 11 1.000000
0.421932 -0.536606 -0.148660 1.000000 0.000000 0.000000 11 11 11 1.000000
0.138488 0.146163 -0.295128 0.000000 -0.000000 1.000000 11 11 11 1.000000
-0.288604 0.300676 0.285490 0.000000 0.000000 -1.000000 34 34 34 1.000000
0.117826 -0.760520 0.280528 0.000000 0.000000 -1.000000 11 11 11 1.000000
-0.329397 0.720599 0.280528 0.000000 0.000000 -1.000000 11 11 11 1.000000
0.033066 -0.532127 0.337833 0.090691 0.000000 -0.995879 11 11 11 1.000000
-0.407134 0.877707 -0.128780 0.000000 1.000000 0.000000 11 11 11 1.000000
0.066437 0.106558 -0.295128 0.000000 0.000000 -1.000000 11 11 11 1.000000
0.035854 -0.100114 -0.295128 0.000000 0.000000 -1.000000 11 11 11 1.000000
0.324402 0.743706 0.280528 0.000000 -0.000000 1.000000 11 11 11 1.000000
0.421932 -0.334812 -0.280300 1.000000 0.000000 0.000000 11 11 11 1.000000
0.421932 0.604093 -0.221189 -1.000000 0.000000 0.000000 11 11 11 1.000000
-0.316354 -0.639217 -0.295128 0.000000 0.000000 -1.000000 11 11 11 1.000000
-0.411777 0.426857 -0.157352 -1.000000 0.000000 0.000000 11 11 11 1.000000
-0.041635 -0.120608 0.320228 0.000000 -0.000000 1.000000 11 11 11 1.000000
0.076435 0.835177 -0.295128 0.000000 -0.000000 1.000000 11 11 11 1.000000
0.421932 0.597930 -0.051085 -1.000000 0.000000 0.000000 11 11 11 1.000000
-0.384750 0.767372 -0.295128 0.000000 -0.000000 1.000000 11 11 11 1.000000
-0.250784 -0.351328 -0.295128 0.000000 -0.000000 1.000000 11 11 11 1.000000
0.384853 -0.849144 -0.108636 0.000000 1.000000 0.000000 11 11 11 1.000000
0.325330 0.519414 0.280528 0.000000 0.000000 -1.000000 11 11 11 1.000000
-0.008657 -0.282881 0.240089 -0.329361 -0.000000 0.944204 0 0 0 1.000000
0.421932 0.050751 -0.028418 -1.000000 0.000000 0.000000 11 11 11 1.000000
0.385272 0.877707 -0.118243 0.000000 -1.000000 -0.000000 11 11 11 1.000000
-0.171769 -0.799941 0.221023 0.000000 0.000000 -1.000000 104 104 104 1.000000
-0.029708 -0.427247 -0.295128 0.000000 0.000000 -1.000000 11 11 11 1.000000
0.089894 0.762583 0.280528 0.000000 0.000000 -1.000000 11 11 11 1.000000
-0.411777 0.351746 -0.195684 -1.000000 0.000000 0.000000 11 11 11 1.000000
0.421932 0.021624 -0.042145 1.000000 0.000000 0.000000 11 11 11 1.000000
-0.208873 -0.109335 0.280528 0.000000 0.000000 -1.000000 11 11 11 1.000000
0.004048 0.877707 -0.230115 0.000000 1.000000 0.000000 11 11 11 1.000000
-0.411475 0.122343 -0.295128 0.000000 0.000000 -1.000000 11 11 11 1.000000
-0.274867 -0.849144 -0.170900 0.000000 -1.000000 -0.000000 11 11 11 1.000000
0.410169 -0.755130 0.280528 0.000000 0.000000 -1.000000 11 11 11 1.000000
0.003600 -0.403679 0.220977 0.000000 0.000000 -1.000000 11 11 11 1.000000
0.130348 0.254167 0.280528 0.000000 0.000000 -1.000000 11 11 11 1.000000
0.421932 0.524397 0.068345 1.000000 0.000000 0.000000 11 11 11 1.000000
-0.309825 -0.584393 -0.295128 0.000000 0.000000 -1.000000 11 11 11 1.000000
0.421932 0.172480 -0.095160 1.000000 0.000000 0.000000 11 11 11 1.000000
-0.411777 -0.688831 -0.184457 -1.000000 0.000000 0.000000 11 11 11 1.000000
0.334013 0.294273 -0.295128 0.000000 0.000000 -1.000000 11 11 11 1.000000
-0.229454 0.702523 -0.295128 0.000000 -0.000000 1.000000 11 11 11 1.000000
-0.411777 -0.619967 -0.074888 1.000000 0.000000 0.000000 11 11 11 1.000000
-0.009094 0.207883 0.239908 0.375073 0.000000 -0.926995 0 0 0 1.000000
-0.411777 -0.018268 0.037507 -1.000000 0.000000 0.000000 11 11 11 1.000000
-0.248899 -0.786722 0.221533 0.000000 0.241701 -0.970351 0 0 0 1.000000
-0.411777 0.464791 -0.012974 -1.000000 0.000000 0.000000 11 11 11 1.000000
0.044078 -0.146567 0.280528 0.000000 0.000000 -1.000000 11 11 11 1.000000
0.047851 0.591638 -0.295128 0.000000 -0.000000 1.000000 11 11 11 1.000000
-0.215984 0.509360 0.280528 0.000000 0.000000 -1.000000 11 11 11 1.000000
-0.004862 -0.539810 0.240936 -0.130886 -0.000000 0.991397 0 0 0 1.000000
-0.123375 -0.636850 0.280528 0.000000 0.000000 -1.000000 11 11 11 1.000000
-0.168107 -0.489634 0.280528 0.000000 0.000000 -1.000000 11 11 11 1.000000
-0.411777 -0.816247 0.191875 -1.000000 0.000000 0.000000 11 11 11 1.000000
0.421932 0.727947 -0.233770 -1.000000 0.000000 0.000000 11 11 11 1.000000
0.421932 0.771088 -0.231084 -1.000000 0.000000 0.000000 11 11 11 1.000000
-0.043965 -0.690972 0.322647 -0.974921 -0.000000 0.222551 11 11 11 1.000000
-0.345829 -0.210142 0.280528 0.000000 -0.000000 1.000000 11 11 11 1.000000
0.421932 0.335102 0.198355 1.000000 0.000000 0.000000 11 11 11 1.000000
0.098630 -0.213337 0.280528 0.000000 0.000000 -1.000000 11 11 11 1.000000
0.037664 0.190526 0.337698 -0.142874 0.000000 -0.989741 11 11 11 1.000000
0.095311 -0.220954 -0.295128 0.000000 -0.000000 1.000000 11 11 11 1.000000
0.421932 -0.131656 -0.194928 -1.000000 0.000000 0.000000 11 11 11 1.000000
-0.238728 0.817233 -0.295128 0.000000 0.000000 -1.000000 11 11 11 1.000000
0.421932 0.529871 0.157499 1.000000 0.000000 0.000000 11 11 11 1.000000
0.421932 -0.834539 -0.030261 -1.000000 0.000000 0.000000 11 11 11 1.000000
-0.367065 -0.565179 0.280528 0.000000 -0.000000 1.000000 11 11 11 1.000000
0.203966 0.877707 0.122828 0.000000 1.000000 0.000000 11 11 11 1.000000
-0.411777 0.816174 -0.172997 1.000000 0.000000 0.000000 11 11 11 1.000000
-0.144642 -0.150955 0.280528 0.000000 0.000000 -1.000000 11 11 11 1.000000
0.110308 -0.789047 0.221064 0.000000 0.147842 -0.989011 0 0 0 1.000000
0.392546 -0.056052 0.280528 0.000000 -0.000000 1.000000 11 11 11 1.000000
0.330906 -0.304036 -0.295128 0.000000 -0.000000 1.000000 11 11 11 1.000000
-0.366374 -0.790397 -0.295128 0.000000 -0.000000 1.000000 11 11 11 1.000000
-0.229881 0.303805 -0.295128 0.000000 -0.000000 1.000000 11 11 11 1.000000
0.421932 -0.585739 -0.124301 1.000000 0.000000 0.000000 11 11 11 1.000000
0.207107 -0.074737 0.280528 0.000000 -0.000000 1.000000 11 11 11 1.000000
0.336010 -0.491854 0.280528 0.000000 0.000000 -1.000000 11 11 11 1.000000
-0.385584 0.049945 -0.295128 0.000000 0.000000 -1.000000 11 11 11 1.000000
0.126361 0.813556 -0.295128 0.000000 0.000000 -1.000000 11 11 11 1.000000
-0.018117 0.813806 0.336794 0.333954 -0.000000 0.942589 11 11 11 1.000000
0.421932 0.119438 -0.076952 1.000000 0.000000 0.000000 11 11 11 1.000000
-0.320277 -0.630154 0.280528 0.000000 0.000000 -1.000000 11 11 11 1.000000
0.421932 0.198785 0.169032 1.000000 0.000000 0.000000 11 11 11 1.000000
0.024983 0.285093 -0.295128 0.000000 0.000000 -1.000000 11 11 11 1.000000
-0.362486 -0.849144 -0.180897 0.000000 -1.000000 -0.000000 11 11 11 1.000000
0.305980 -0.789711 0.278024 0.000000 1.000000 0.000000 11 11 11 1.000000
-0.411777 0.117778 0.254550 -1.000000 0.000000 0.000000 11 11 11 1.000000
0.396220 0.849382 -0.295128 0.000000 -0.000000 1.000000 11 11 11 1.000000
0.413257 0.759741 0.235673 -0.858898 -0.000000 0.512146 0 0 0 1.000000
-0.308181 -0.420817 -0.295128 0.000000 0.000000 -1.000000 11 11 11 1.000000
0.345548 -0.552702 0.280528 0.000000 0.000000 -1.000000 11 11 11 1.000000
-0.401953 0.861083 0.229967 0.993909 0.000000 -0.110208 0 0 0 1.000000
0.249981 -0.017027 0.280528 0.000000 -0.000000 1.000000 11 11 11 1.000000
-0.411777 -0.020939 -0.233425 1.000000 0.000000 0.000000 11 11 11 1.000000
-0.411777 -0.262608 -0.214073 1.000000 0.000000 0.000000 11 11 11 1.000000
0.054645 0.688873 0.318652 0.990209 -0.000000 0.139596 11 11 11 1.000000
0.376332 -0.451287 -0.295128 0.000000 0.000000 -1.000000 11 11 11 1.000000
0.020282 0.055036 0.280528 0.000000 0.000000 -1.000000 11 11 11 1.000000
-0.014042 -0.658158 -0.295128 0.000000 -0.000000 1.000000 11 11 11 1.000000
0.177875 -0.849144 -0.228048 0.000000 1.000000 0.000000 11 11 11 1.000000
-0.131145 0.868198 0.233822 0.000000 0.951874 -0.306490 0 0 0 1.000000
0.088667 0.877707 -0.237888 0.000000 -1.000000 -0.000000 11 11 11 1.000000
0.375254 -0.827576 -0.295128 0.000000 0.000000 -1.000000 11 11 11 1.000000
0.390168 0.542105 0.280528 0.000000 -0.000000 1.000000 11 11 11 1.000000
-0.411777 -0.500802 -0.189757 1.000000 0.000000 0.000000 11 11 11 1.000000
-0.411777 0.113112 0.042485 -1.000000 0.000000 0.000000 11 11 11 1.000000
0.257073 -0.849144 -0.229290 0.000000 1.000000 0.000000 11 11 11 1.000000
-0.411777 -0.371113 0.052713 -1.000000 0.000000 0.000000 11 11 11 1.000000
0.314163 -0.801564 0.220977 0.000000 0.000000 -1.000000 104 104 104 1.000000
0.421932 -0.151328 -0.058911 1.000000 0.000000 0.000000 11 11 11 1.000000
0.181728 -0.619128 -0.295128 0.000000 0.000000 -1.000000 11 11 11 1.000000
-0.032226 -0.577528 0.336402 -0.382505 -0.000000 0.923953 11 11 11 1.000000
-0.411777 0.386743 -0.204229 -1.000000 0.000000 0.000000 11 11 11 1.000000
0.337750 0.364282 0.280528 0.000000 -0.000000 1.000000 11 11 11 1.000000
-0.220093 -0.751713 -0.295128 0.000000 0.000000 -1.000000 11 11 11 1.000000
0.015002 0.285149 0.250514 1.000000 0.000000 0.000000 11 11 11 1.000000
-0.411777 -0.623739 0.212447 -1.000000 0.000000 0.000000 11 11 11 1.000000
-0.411777 0.566662 0.207589 1.000000 0.000000 0.000000 11 11 11 1.000000
-0.411777 -0.358991 -0.071517 1.000000 0.000000 0.000000 11 11 11 1.000000
0.421932 0.553895 -0.218767 -1.000000 0.000000 0.000000 11 11 11 1.000000
-0.016000 0.437393 -0.295128 0.000000 -0.000000 1.000000 11 11 11 1.000000
-0.267100 0.869996 0.237149 0.000000 -0.752931 0.658099 0 0 0 1.000000
0.366310 0.422414 0.280528 0.000000 -0.000000 1.000000 11 11 11 1.000000
-0.411777 -0.629812 0.141933 -1.000000 0.000000 0.000000 11 11 11 1.000000
0.177468 -0.849144 0.135419 0.000000 -1.000000 -0.000000 11 11 11 1.000000
0.278561 0.046476 0.280528 0.000000 0.000000 -1.000000 11 11 11 1.000000
0.421932 0.253923 0.105769 1.000000 0.000000 0.000000 11 11 11 1.000000
0.206202 -0.355566 0.280528 0.000000 0.000000 -1.000000 11 11 11 1.000000
-0.051874 0.347059 -0.295128 0.000000 0.000000 -1.000000 11 11 11 1.000000
0.096275 -0.849144 -0.067868 0.000000 -1.000000 -0.000000 11 11 11 1.000000
0.054514 0.220501 0.319650 0.987050 -0.000000 0.160413 11 11 11 1.000000
0.294003 0.877707 -0.175709 0.000000 -1.000000 -0.000000 11 11 11 1.000000
0.405263 -0.849144 -0.202117 0.000000 1.000000 0.000000 11 11 11 1.000000
0.131225 -0.849144 -0.244310 0.000000 -1.000000 -0.000000 11 11 11 1.000000
-0.183410 -0.079714 0.280528 0.000000 0.000000 -1.000000 11 11 11 1.000000
0.363270 -0.017331 -0.295128 0.000000 0.000000 -1.000000 11 11 11 1.000000
0.092397 0.788640 -0.295128 0.000000 0.000000 -1.000000 11 11 11 1.000000
-0.309364 -0.090883 -0.295128 0.000000 0.000000 -1.000000 11 11 11 1.000000
-0.411777 0.674160 -0.230497 -1.000000 0.000000 0.000000 11 11 11 1.000000
0.016815 0.729252 0.240589 -0.177738 0.000000 -0.984078 0 0 0 1.000000
0.412305 0.054836 0.233166 0.969388 0.000000 -0.245533 0 0 0 1.000000
-0.411777 0.375341 -0.046849 -1.000000 0.000000 0.000000 11 11 11 1.000000
0.328762 0.791330 0.280528 0.000000 -0.000000 1.000000 11 11 11 1.000000
-0.030221 0.150610 0.280528 0.000000 0.000000 -1.000000 11 11 11 1.000000
0.282316 0.117860 -0.295128 0.000000 -0.000000 1.000000 11 11 11 1.000000
0.317672 0.877707 -0.269316 0.000000 1.000000 0.000000 11 11 11 1.000000
-0.340962 -0.061493 -0.295128 0.000000 -0.000000 1.000000 11 11 11 1.000000
-0.411777 -0.337662 0.044048 1.000000 0.000000 0.000000 11 11 11 1.000000
0.416309 0.877707 -0.138317 0.000000 1.000000 0.000000 11 11 11 1.000000
0.199972 0.012085 0.280528 0.000000 -0.000000 1.000000 11 11 11 1.000000
0.380419 0.710293 -0.295128 0.000000 0.000000 -1.000000 11 11 11 1.000000
0.354743 -0.282992 0.280528 0.000000 -0.000000 1.000000 11 11 11 1.000000
0.235459 -0.719766 0.280528 0.000000 -0.000000 1.000000 11 11 11 1.000000
-0.411777 -0.650515 -0.080951 1.000000 0.000000 0.000000 11 11 11 1.000000
-0.004848 -0.252811 0.242436 1.000000 0.000000 -0.000000 187 187 187 1.000000
-0.411777 -0.735049 0.160532 1.000000 0.000000 0.000000 11 11 11 1.000000
0.193747 0.046724 -0.295128 0.000000 -0.000000 1.000000 11 11 11 1.000000
-0.212896 -0.849144 -0.232689 0.000000 1.000000 0.000000 11 11 11 1.000000
-0.411777 -0.456865 0.167144 -1.000000 0.000000 0.000000 11 11 11 1.000000
0.032801 -0.595128 0.280528 0.000000 -0.000000 1.000000 11 11 11 1.000000
-0.212668 0.404975 -0.295128 0.000000 0.000000 -1.000000 11 11 11 1.000000
0.421932 -0.220161 0.141117 -1.000000 0.000000 0.000000 11 11 11 1.000000
-0.198672 -0.823052 -0.295128 0.000000 0.000000 -1.000000 11 11 11 1.000000
0.006557 -0.643172 0.220977 0.000000 0.000000 -1.000000 11 11 11 1.000000
-0.263198 0.877707 0.120468 0.000000 1.000000 0.000000 11 11 11 1.000000
-0.103302 -0.604308 -0.295128 0.000000 -0.000000 1.000000 11 11 11 1.000000
-0.004906 0.414643 0.318660 -0.990185 0.000000 -0.139761 11 11 11 1.000000
-0.157116 -0.741819 0.280528 0.000000 0.000000 -1.000000 11 11 11 1.000000
0.219380 -0.671092 0.280528 0.000000 -0.000000 1.000000 11 11 11 1.000000
-0.410416 -0.246457 0.221202 0.165899 0.000000 -0.986143 0 0 0 1.000000
0.249828 -0.074619 0.280528 0.000000 0.000000 -1.000000 11 11 11 1.000000
0.240318 -0.849144 -0.193646 0.000000 -1.000000 -0.000000 11 11 11 1.000000
0.255409 0.738367 -0.295128 0.000000 -0.000000 1.000000 11 11 11 1.000000
0.247736 0.411251 -0.295128 0.000000 -0.000000 1.000000 11 11 11 1.000000
-0.411777 0.799082 -0.012665 1.000000 0.000000 0.000000 11 11 11 1.000000
-0.411777 0.246116 -0.017750 1.000000 0.000000 0.000000 11 11 11 1.000000
0.366904 0.112886 -0.295128 0.000000 0.000000 -1.000000 11 11 11 1.000000
0.036346 -0.031035 0.280528 0.000000 -0.000000 1.000000 11 11 11 1.000000
0.247264 0.245835 0.280528 0.000000 0.000000 -1.000000 11 11 11 1.000000
-0.323698 0.673263 0.280528 0.000000 0.000000 -1.000000 11 11 11 1.000000
0.421932 0.480537 0.070717 1.000000 0.000000 0.000000 11 11 11 1.000000
-0.365458 0.266011 0.285490 0.000000 0.000000 -1.000000 34 34 34 1.000000
-0.340145 -0.190192 -0.295128 0.000000 0.000000 -1.000000 11 11 11 1.000000
-0.361511 -0.715559 0.280528 0.000000 -0.000000 1.000000 11 11 11 1.000000
-0.411777 -0.084289 -0.052339 1.000000 0.000000 0.000000 11 11 11 1.000000
0.402459 0.417184 0.280528 0.000000 -0.000000 1.000000 11 11 11 1.000000
-0.411777 -0.215035 0.079682 -1.000000 0.000000 0.000000 11 11 11 1.000000
0.354974 0.218008 -0.295128 0.000000 -0.000000 1.000000 11 11 11 1.000000
-0.223044 0.877707 -0.046542 0.000000 -1.000000 -0.000000 11 11 11 1.000000
0.217683 -0.224457 -0.295128 0.000000 0.000000 -1.000000 11 11 11 1.000000
0.090268 0.498573 -0.295128 0.000000 0.000000 -1.000000 11 11 11 1.000000
-0.153768 -0.849144 0.230797 0.000000 1.000000 0.000000 11 11 11 1.000000
-0.273623 0.877707 -0.119433 0.000000 1.000000 0.000000 11 11 11 1.000000
0.011053 0.502949 -0.295128 0.000000 -0.000000 1.000000 11 11 11 1.000000
-0.079330 0.307184 -0.295128 0.000000 0.000000 -1.000000 11 11 11 1.000000
0.421932 -0.477647 0.153617 1.000000 0.000000 0.000000 11 11 11 1.000000
0.020246 0.003382 0.331511 0.744384 0.000000 -0.667751 11 11 11 1.000000
0.398717 -0.849144 -0.274789 0.000000 -1.000000 -0.000000 11 11 11 1.000000
-0.071732 -0.849144 -0.292797 0.000000 1.000000 0.000000 11 11 11 1.000000
0.421932 0.407140 0.168658 -1.000000 0.000000 0.000000 11 11 11 1.000000
0.388367 0.103027 0.280528 0.000000 -0.000000 1.000000 11 11 11 1.000000
0.191527 0.374449 0.280528 0.000000 -0.000000 1.000000 11 11 11 1.000000
0.037103 -0.669889 0.280528 0.000000 -0.000000 1.000000 11 11 11 1.000000
0.155946 0.376014 -0.295128 0.000000 0.000000 -1.000000 11 11 11 1.000000
-0.396191 -0.558562 0.280528 0.000000 0.000000 -1.000000 11 11 11 1.000000
-0.411777 0.153513 -0.083027 1.000000 0.000000 0.000000 11 11 11 1.000000
0.421932 0.113293 0.026036 -1.000000 0.000000 0.000000 11 11 11 1.000000
-0.109840 0.701411 0.280528 0.000000 0.000000 -1.000000 11 11 11 1.000000
-0.309224 -0.321116 0.280528 0.000000 -0.000000 1.000000 11 11 11 1.000000
0.421932 0.388907 0.253629 -1.000000 0.000000 0.000000 11 11 11 1.000000
-0.301251 0.778706 -0.295128 0.000000 -0.000000 1.000000 11 11 11 1.000000
-0.411777 -0.751501 0.108023 -1.000000 0.000000 0.000000 11 11 11 1.000000
-0.050964 -0.304733 -0.295128 0.000000 0.000000 -1.000000 11 11 11 1.000000
0.015002 0.631626 0.277614 1.000000 0.000000 0.000000 11 11 11 1.000000
-0.303751 -0.711279 0.280528 0.000000 0.000000 -1.000000 11 11 11 1.000000
-0.072105 0.674769 0.280528 0.000000 -0.000000 1.000000 11 11 11 1.000000
-0.005760 -0.446318 0.320228 0.000000 -0.000000 1.000000 11 11 11 1.000000
-0.411777 -0.235187 -0.276746 1.000000 0.000000 0.000000 11 11 11 1.000000
-0.411777 -0.069314 -0.083475 -1.000000 0.000000 0.000000 11 11 11 1.000000
-0.282144 -0.158119 0.280528 0.000000 0.000000 -1.000000 11 11 11 1.000000
0.414734 -0.212711 0.280528 0.000000 0.000000 -1.000000 11 11 11 1.000000
0.162032 0.877707 -0.222385 0.000000 -1.000000 -0.000000 11 11 11 1.000000
-0.411777 0.875999 0.136575 1.000000 0.000000 0.000000 11 11 11 1.000000
0.321542 -0.038694 -0.295128 0.000000 0.000000 -1.000000 11 11 11 1.000000
0.114374 0.750142 -0.295128 0.000000 -0.000000 1.000000 11 11 11 1.000000
0.360330 0.597201 0.280528 0.000000 -0.000000 1.000000 11 11 11 1.000000
-0.407314 0.775110 0.239818 -0.397385 0.000000 -0.917652 0 0 0 1.000000
0.413883 -0.363883 0.236577 0.793217 0.000000 -0.608938 0 0 0 1.000000
-0.098753 -0.398049 -0.295128 0.000000 0.000000 -1.000000 11 11 11 1.000000
0.284042 0.119374 0.280528 0.000000 -0.000000 1.000000 11 11 11 1.000000
0.354558 -0.849144 -0.006744 0.000000 -1.000000 -0.000000 11 11 11 1.000000
0.224342 0.537043 0.280528 0.000000 -0.000000 1.000000 11 11 11 1.000000
-0.411777 0.143517 -0.015504 1.000000 0.000000 0.000000 11 11 11 1.000000
0.421932 -0.286673 -0.207330 1.000000 0.000000 0.000000 11 11 11 1.000000
0.122642 0.268725 -0.295128 0.000000 -0.000000 1.000000 11 11 11 1.000000
-0.142952 -0.365895 -0.295128 0.000000 -0.000000 1.000000 11 11 11 1.000000
-0.411777 0.194018 0.217758 -1.000000 0.000000 0.000000 11 11 11 1.000000
0.180699 -0.420889 0.280528 0.000000 0.000000 -1.000000 11 11 11 1.000000
0.307606 0.836336 -0.295128 0.000000 -0.000000 1.000000 11 11 11 1.000000
0.299904 0.791175 -0.295128 0.000000 0.000000 -1.000000 11 11 11 1.000000
-0.001514 0.358542 -0.295128 0.000000 0.000000 -1.000000 11 11 11 1.000000
-0.411777 0.172945 0.028176 1.000000 0.000000 0.000000 11 11 11 1.000000
-0.153280 0.095810 0.262529 0.000000 -1.000000 -0.000000 34 34 34 1.000000
-0.224492 0.877707 0.257837 0.000000 -1.000000 -0.000000 11 11 11 1.000000
-0.238271 0.877707 -0.096244 0.000000 1.000000 0.000000 11 11 11 1.000000
0.101831 -0.485989 -0.295128 0.000000 -0.000000 1.000000 11 11 11 1.000000
0.421932 0.562734 -0.172899 1.000000 0.000000 0.000000 11 11 11 1.000000
-0.004848 -0.643236 0.254476 1.000000 0.000000 -0.000000 142 142 142 1.000000
-0.411777 -0.075027 -0.175665 1.000000 0.000000 0.000000 11 11 11 1.000000
-0.121107 0.877707 -0.233576 0.000000 1.000000 0.000000 11 11 11 1.000000
0.421932 0.108632 0.271336 1.000000 0.000000 0.000000 11 11 11 1.000000
0.090028 -0.849144 -0.274976 0.000000 1.000000 0.000000 11 11 11 1.000000
-0.353261 -0.340753 -0.295128 0.000000 0.000000 -1.000000 11 11 11 1.000000
0.399501 0.303329 0.280528 0.000000 -0.000000 1.000000 11 11 11 1.000000
-0.411777 -0.127441 -0.187790 1.000000 0.000000 0.000000 11 11 11 1.000000
-0.028688 0.623219 -0.295128 0.000000 0.000000 -1.000000 11 11 11 1.000000
0.421932 0.336664 0.275771 -1.000000 0.000000 0.000000 11 11 11 1.000000
0.038371 -0.708154 -0.295128 0.000000 0.000000 -1.000000 11 11 11 1.000000
0.337751 -0.743208 0.280528 0.000000 0.000000 -1.000000 11 11 11 1.000000
0.150778 0.456738 -0.295128 0.000000 0.000000 -1.000000 11 11 11 1.000000
0.278610 -0.531627 -0.295128 0.000000 -0.000000 1.000000 11 11 11 1.000000
-0.411777 0.858545 -0.292918 1.000000 0.000000 0.000000 11 11 11 1.000000
-0.195666 -0.849144 -0.266191 0.000000 1.000000 0.000000 11 11 11 1.000000
0.421932 0.869273 0.003461 1.000000 0.000000 0.000000 11 11 11 1.000000
-0.411777 -0.182419 -0.266311 -1.000000 0.000000 0.000000 11 11 11 1.000000
-0.411777 0.467896 -0.258182 -1.000000 0.000000 0.000000 11 11 11 1.000000
0.092264 -0.597690 0.280528 0.000000 0.000000 -1.000000 11 11 11 1.000000
-0.411777 -0.774640 -0.196119 -1.000000 0.000000 0.000000 11 11 11 1.000000
0.397042 0.811860 -0.295128 0.000000 -0.000000 1.000000 11 11 11 1.000000
-0.161139 0.877707 0.210753 0.000000 1.000000 0.000000 11 11 11 1.000000
-0.189818 -0.849144 -0.155063 0.000000 -1.000000 -0.000000 11 11 11 1.000000
0.421932 0.346918 -0.043301 1.000000 0.000000 0.000000 11 11 11 1.000000
0.421932 -0.616170 -0.255129 -1.000000 0.000000 0.000000 11 11 11 1.000000
-0.411777 0.453595 -0.080738 -1.000000 0.000000 0.000000 11 11 11 1.000000
-0.300045 0.048350 -0.295128 0.000000 -0.000000 1.000000 11 11 11 1.000000
-0.353644 0.086464 -0.295128 0.000000 0.000000 -1.000000 11 11 11 1.000000
0.015002 -0.425507 0.252833 -1.000000 0.000000 0.000000 11 11 11 1.000000
0.421932 -0.183712 -0.195421 1.000000 0.000000 0.000000 11 11 11 1.000000
0.349377 0.162928 -0.295128 0.000000 0.000000 -1.000000 11 11 11 1.000000
-0.411777 0.243728 -0.222469 -1.000000 0.000000 0.000000 11 11 11 1.000000
0.421932 0.618132 -0.185710 1.000000 0.000000 0.000000 11 11 11 1.000000
-0.053552 0.577688 0.280528 0.000000 -0.000000 1.000000 11 11 11 1.000000
0.104323 0.469965 -0.295128 0.000000 0.000000 -1.000000 11 11 11 1.000000
0.117512 -0.632350 0.280528 0.000000 0.000000 -1.000000 11 11 11 1.000000
-0.317461 0.465836 0.280528 0.000000 0.000000 -1.000000 11 11 11 1.000000
-0.004848 0.272753 0.280243 -1.000000 -0.000000 0.000000 142 142 142 1.000000
0.421932 -0.776101 0.036058 -1.000000 0.000000 0.000000 11 11 11 1.000000
-0.219723 0.009129 -0.295128 0.000000 0.000000 -1.000000 11 11 11 1.000000
-0.411777 0.122991 0.110796 1.000000 0.000000 0.000000 11 11 11 1.000000
0.011147 -0.746292 -0.295128 0.000000 -0.000000 1.000000 11 11 11 1.000000
0.104993 -0.789711 0.254016 0.000000 1.000000 0.000000 11 11 11 1.000000
0.421932 -0.560072 -0.250910 -1.000000 0.000000 0.000000 11 11 11 1.000000
0.060071 0.140923 0.280528 0.000000 -0.000000 1.000000 11 11 11 1.000000
0.421932 -0.049917 -0.130919 -1.000000 0.000000 0.000000 11 11 11 1.000000
0.421932 -0.379162 -0.286186 -1.000000 0.000000 0.000000 11 11 11 1.000000
0.052712 -0.849144 -0.246325 0.000000 -1.000000 -0.000000 11 11 11 1.000000
-0.132824 0.877707 0.073877 0.000000 1.000000 0.000000 11 11 11 1.000000
0.015510 0.121905 0.320228 0.000000 0.000000 -1.000000 255 255 255 1.000000
0.174276 0.224256 0.280528 0.000000 -0.000000 1.000000 11 11 11 1.000000
0.413883 -0.200400 0.236577 -0.793249 -0.000000 0.608897 0 0 0 1.000000
-0.115938 -0.387090 0.280528 0.000000 0.000000 -1.000000 11 11 11 1.000000
-0.402379 0.091228 0.227874 -0.942017 -0.000000 0.335564 0 0 0 1.000000
-0.139253 -0.849144 -0.142885 0.000000 -1.000000 -0.000000 11 11 11 1.000000
-0.239361 0.877707 0.100607 0.000000 1.000000 0.000000 11 11 11 1.000000
-0.411777 0.712353 0.194591 1.000000 0.000000 0.000000 11 11 11 1.000000
-0.411777 -0.366240 0.091589 1.000000 0.000000 0.000000 11 11 11 1.000000
-0.411777 -0.707681 0.178416 1.000000 0.000000 0.000000 11 11 11 1.000000
-0.142174 -0.728274 -0.295128 0.000000 -0.000000 1.000000 11 11 11 1.000000
0.421932 -0.204923 -0.268579 1.000000 0.000000 0.000000 11 11 11 1.000000
-0.411777 -0.618010 -0.038234 1.000000 0.000000 0.000000 11 11 11 1.000000
-0.411777 0.350365 0.272851 1.000000 0.000000 0.000000 11 11 11 1.000000
0.032944 -0.181220 -0.295128 0.000000 0.000000 -1.000000 11 11 11 1.000000
0.421932 0.085993 -0.180241 1.000000 0.000000 0.000000 11 11 11 1.000000
-0.006267 0.111302 0.325149 -0.945881 0.000000 -0.324515 11 11 11 1.000000
-0.007834 0.877707 0.243326 0.000000 -1.000000 -0.000000 11 11 11 1.000000
-0.259550 0.192561 0.230902 0.000000 0.000000 -1.000000 104 104 104 1.000000
0.205919 0.342927 -0.295128 0.000000 -0.000000 1.000000 11 11 11 1.000000
-0.081600 0.134433 0.285490 0.000000 0.000000 -1.000000 34 34 34 1.000000
-0.029756 -0.552447 0.337402 -0.254946 -0.000000 0.966955 11 11 11 1.000000
-0.241031 0.245925 0.251788 0.000000 1.000000 0.000000 34 34 34 1.000000
0.001260 0.529167 0.220977 0.000000 -0.000000 1.000000 11 11 11 1.000000
0.421932 0.737905 -0.001995 -1.000000 0.000000 0.000000 11 11 11 1.000000
-0.084174 0.877707 0.013895 0.000000 1.000000 0.000000 11 11 11 1.000000
0.421932 0.104390 -0.294896 -1.000000 0.000000 0.000000 11 11 11 1.000000
-0.261779 0.144335 0.224735 0.000000 1.000000 0.000000 104 104 104 1.000000
-0.082164 0.877707 -0.259131 0.000000 1.000000 0.000000 11 11 11 1.000000
-0.233779 0.773551 0.280528 0.000000 0.000000 -1.000000 11 11 11 1.000000
0.123202 -0.056138 0.280528 0.000000 -0.000000 1.000000 11 11 11 1.000000
0.414601 -0.648340 -0.295128 0.000000 0.000000 -1.000000 11 11 11 1.000000
0.090553 -0.824397 -0.295128 0.000000 0.000000 -1.000000 11 11 11 1.000000
0.151933 -0.755911 -0.295128 0.000000 0.000000 -1.000000 11 11 11 1.000000
0.147335 0.877707 -0.177111 0.000000 -1.000000 -0.000000 11 11 11 1.000000
0.421932 -0.511414 0.212823 -1.000000 0.000000 0.000000 11 11 11 1.000000
-0.225860 -0.849144 0.189505 0.000000 -1.000000 -0.000000 11 11 11 1.000000
-0.004848 0.871723 0.277508 -1.000000 -0.000000 0.000000 193 193 193 1.000000
-0.353907 0.877707 -0.197154 0.000000 -1.000000 -0.000000 11 11 11 1.000000
0.421932 0.314156 -0.251059 1.000000 0.000000 0.000000 11 11 11 1.000000
-0.173543 -0.032087 0.280528 0.000000 -0.000000 1.000000 11 11 11 1.000000
0.421932 -0.537461 0.200894 -1.000000 0.000000 0.000000 11 11 11 1.000000
0.015002 -0.256970 0.275675 1.000000 0.000000 0.000000 11 11 11 1.000000
0.268368 -0.356187 -0.295128 0.000000 0.000000 -1.000000 11 11 11 1.000000
0.421932 0.143584 0.036113 1.000000 0.000000 0.000000 11 11 11 1.000000
-0.087585 0.877707 -0.208136 0.000000 1.000000 0.000000 11 11 11 1.000000
0.157182 -0.849144 -0.208442 0.000000 1.000000 0.000000 11 11 11 1.000000
-0.232624 0.095810 0.264708 0.000000 -1.000000 -0.000000 34 34 34 1.000000
0.421932 -0.065613 -0.022591 1.000000 0.000000 0.000000 11 11 11 1.000000
-0.411777 -0.261091 0.043887 1.000000 0.000000 0.000000 11 11 11 1.000000
-0.037714 -0.849144 0.136992 0.000000 1.000000 0.000000 11 11 11 1.000000
0.398174 0.258327 -0.295128 0.000000 0.000000 -1.000000 11 11 11 1.000000
-0.411777 -0.389821 0.219162 -1.000000 0.000000 0.000000 11 11 11 1.000000
-0.269526 0.605864 -0.295128 0.000000 0.000000 -1.000000 11 11 11 1.000000
-0.411777 -0.804399 0.155303 -1.000000 0.000000 0.000000 11 11 11 1.000000
-0.411777 -0.314828 0.158111 -1.000000 0.000000 0.000000 11 11 11 1.000000
0.135308 -0.666465 0.280528 0.000000 0.000000 -1.000000 11 11 11 1.000000
0.421932 0.333135 -0.270485 1.000000 0.000000 0.000000 11 11 11 1.000000
-0.009765 -0.805894 -0.295128 0.000000 -0.000000 1.000000 11 11 11 1.000000
0.421932 0.381345 0.086458 1.000000 0.000000 0.000000 11 11 11 1.000000
-0.180913 0.220309 0.228892 0.047342 -0.000000 0.998879 193 231 237 0.388235
0.421932 0.185261 -0.215734 -1.000000 0.000000 0.000000 11 11 11 1.000000
0.421932 -0.022113 -0.197963 1.000000 0.000000 0.000000 11 11 11 1.000000
0.091181 -0.544388 0.280528 0.000000 0.000000 -1.000000 11 11 11 1.000000
0.421932 0.042855 0.251108 1.000000 0.000000 0.000000 11 11 11 1.000000
0.367549 0.619006 -0.295128 0.000000 -0.000000 1.000000 11 11 11 1.000000
0.201336 -0.744374 -0.295128 0.000000 -0.000000 1.000000 11 11 11 1.000000
-0.259246 0.877707 -0.053706 0.000000 -1.000000 -0.000000 11 11 11 1.000000
-0.006180 -0.696706 0.240763 0.165144 0.000000 -0.986270 0 0 0 1.000000
