ply
format ascii 1.0
element vertex 1287
property float x
property float y
property float z
property uchar red
property uchar green
property uchar blue
end_header
0.206625 0.838858 -0.046440 153 0 76
0.180353 0.907238 0.027057 255 0 0
0.129484 0.007885 0.022635 76 0 153
-0.291673 0.126588 -0.022280 153 0 76
0.127424 0.789394 0.015846 153 0 76
-0.253087 -0.600497 -0.024151 153 0 76
-0.334786 0.154102 0.052033 255 0 0
0.058252 -0.113532 0.026088 76 0 153
0.165618 0.370764 0.031737 76 0 153
0.230579 0.224860 0.000429 153 0 76
0.317008 -0.630975 0.019998 255 0 0
0.364896 -0.771512 0.018109 255 0 0
-0.177703 0.818433 -0.027806 153 0 76
0.228749 -0.739395 -0.047513 153 0 76
-0.288271 -0.799837 0.036001 153 0 76
0.255830 -0.678800 0.009621 153 0 76
-0.045128 0.336180 -0.034234 153 0 76
0.321900 -0.493913 -0.052030 255 0 0
-0.142851 -0.057040 0.046693 76 0 153
-0.110338 -0.662485 0.027374 153 0 76
-0.323346 0.330258 -0.020744 255 0 0
0.348639 -0.357220 0.018897 255 0 0
0.109851 -0.680694 0.016698 153 0 76
-0.228126 0.601513 0.031384 153 0 76
0.153801 -0.768110 -0.043879 153 0 76
0.145529 0.607727 0.031059 76 0 153
0.038478 0.375978 0.027047 76 0 153
0.004997 -0.410833 0.039524 76 0 153
0.087969 -0.506725 0.024647 76 0 153
-0.161003 -0.454043 0.036719 76 0 153
0.051432 0.000002 -0.038916 153 0 76
0.356431 -0.859435 0.018519 255 0 0
0.087202 0.189938 -0.040650 153 0 76
-0.064059 0.429513 0.032018 76 0 153
0.059253 -0.069664 0.036894 76 0 153
-0.168865 0.430688 0.047955 76 0 153
0.043360 0.942745 -0.038524 255 0 0
-0.021257 0.519316 0.029943 76 0 153
0.304921 0.919779 -0.027624 255 0 0
-0.377569 0.380152 0.044798 255 0 0
0.307590 -0.395588 -0.029210 153 0 76
0.150645 0.305467 -0.043726 153 0 76
-0.082641 0.363704 0.032919 76 0 153
-0.156913 -0.497377 0.047375 76 0 153
0.279085 0.918381 -0.045023 255 0 0
0.121294 -0.358675 0.016144 153 0 76
-0.012642 0.750684 -0.035809 153 0 76
-0.287945 0.543229 0.035985 153 0 76
0.246042 0.189179 -0.048351 153 0 76
0.013361 -0.311898 0.039119 76 0 153
0.072861 -0.537203 0.025380 76 0 153
-0.126499 0.091824 -0.030289 153 0 76
0.269014 0.169475 -0.049465 153 0 76
-0.067652 0.938548 -0.033142 255 0 0
0.234757 0.543579 0.010642 153 0 76
-0.280342 -0.211003 -0.022830 153 0 76
-0.014279 -0.003319 0.022717 153 0 76
0.372190 0.158786 -0.054468 255 0 0
-0.347573 0.253599 0.052653 255 0 0
-0.063984 0.633194 -0.033320 153 0 76
-0.241370 -0.219167 0.033727 153 0 76
0.292049 -0.186994 -0.050582 153 0 76
-0.161486 -0.627753 0.036742 76 0 153
-0.044056 0.520281 0.031049 76 0 153
-0.216098 -0.256153 -0.025945 153 0 76
0.180859 -0.597523 0.029044 76 0 153
0.090381 0.059530 0.017642 153 0 76
-0.115966 -0.710098 0.042253 76 0 153
-0.092101 -0.598802 0.026490 153 0 76
0.048330 -0.523997 0.037424 76 0 153
0.274376 -0.234579 -0.049725 153 0 76
-0.038654 -0.944069 0.023505 153 0 76
-0.374196 -0.261114 0.053320 255 0 0
0.032671 0.781188 -0.038006 153 0 76
0.131678 0.382848 0.033383 76 0 153
-0.020831 0.417997 0.040777 76 0 153
-0.022055 0.950229 0.021280 0 255 0
-0.033889 -0.177273 0.023667 153 0 76
0.192420 0.638223 -0.045751 153 0 76
0.352882 -0.730438 0.018691 255 0 0
0.297257 0.329093 0.007612 153 0 76
-0.132639 0.658038 0.035344 76 0 153
0.044542 0.620304 0.019865 153 0 76
0.307432 -0.702329 -0.032471 153 0 76
0.000400 0.062789 -0.036441 153 0 76
-0.315268 0.044954 0.012134 255 0 0
-0.086964 -0.356686 0.033129 76 0 153
0.121828 -0.405805 0.033860 76 0 153
0.001704 0.622720 0.028830 76 0 153
0.102950 0.780442 -0.041413 153 0 76
0.033739 0.445780 0.038131 76 0 153
-0.374829 0.683062 0.051761 255 0 0
-0.018372 0.266242 0.040658 76 0 153
-0.048189 -0.003518 -0.034086 153 0 76
-0.327193 -0.287965 -0.020558 255 0 0
0.175385 -0.244305 -0.044926 153 0 76
-0.384560 0.430948 0.013642 255 0 0
-0.189488 -0.726000 0.031212 153 0 76
0.122031 -0.078158 0.016108 153 0 76
-0.176684 0.646582 -0.027855 153 0 76
0.337123 -0.534771 -0.052768 255 0 0
0.087569 0.169742 0.035521 76 0 153
0.015557 0.530529 -0.037176 153 0 76
0.160837 -0.655372 -0.044220 153 0 76
0.090665 -0.371021 -0.040818 153 0 76
-0.022203 0.930431 -0.035345 255 0 0
-0.346442 0.820890 -0.019624 255 0 0
-0.319433 -0.488859 0.043141 255 0 0
-0.036151 0.923954 -0.007431 0 255 0
0.281231 0.769645 -0.050057 153 0 76
-0.072673 -0.837288 -0.032899 153 0 76
0.352573 -0.796585 0.018706 255 0 0
-0.030139 0.245573 -0.034961 153 0 76
0.119453 0.064502 0.023121 76 0 153
0.147719 -0.944069 -0.031837 153 0 76
0.282691 0.574688 0.008318 153 0 76
-0.055457 0.746966 0.015952 153 0 76
-0.193548 0.732586 -0.027038 153 0 76
0.363970 0.296901 0.018153 255 0 0
-0.080377 -0.930391 -0.032525 153 0 76
-0.153695 -0.011398 -0.028970 153 0 76
0.230256 -0.720343 0.000444 153 0 76
-0.186365 0.709006 -0.027386 153 0 76
-0.149994 -0.148180 0.047039 76 0 153
0.199524 -0.325615 0.012351 153 0 76
-0.112851 0.314914 0.034384 76 0 153
0.011968 0.091440 0.039187 76 0 153
0.288172 0.561015 0.008053 153 0 76
-0.127041 -0.181480 0.045926 76 0 153
0.103427 0.297048 0.023898 76 0 153
-0.245319 0.847440 0.006308 255 0 0
-0.173275 0.761929 0.028170 153 0 76
-0.021952 0.933304 0.036866 255 0 0
0.170205 -0.151773 0.031514 76 0 153
0.310395 0.550808 0.000947 255 0 0
-0.109583 -0.578896 0.045080 76 0 153
0.244936 -0.889944 -0.048298 153 0 76
0.377025 0.865039 -0.023745 255 0 0
0.161856 0.333170 0.014177 153 0 76
-0.233459 -0.923769 0.033343 153 0 76
-0.126131 0.070654 0.035028 76 0 153
-0.113478 0.072155 -0.030920 153 0 76
0.044887 0.266899 -0.038598 153 0 76
-0.272108 -0.047396 -0.023229 153 0 76
-0.139523 0.761799 -0.029657 153 0 76
-0.337669 0.246808 -0.020050 255 0 0
-0.317424 -0.703278 -0.004558 153 0 76
0.336478 0.908391 -0.052736 255 0 0
0.027518 -0.365804 0.038433 76 0 153
-0.200677 0.754494 0.022401 153 0 76
-0.294947 0.223586 -0.022121 153 0 76
0.375574 0.563489 -0.014678 255 0 0
-0.315223 0.561054 0.006038 255 0 0
-0.343613 0.658434 -0.019762 255 0 0
0.308284 0.835481 -0.008378 255 0 0
-0.317153 0.511804 -0.016146 255 0 0
0.204154 0.840628 0.012126 153 0 76
0.087202 0.667536 0.017796 153 0 76
0.283383 0.716836 -0.050161 153 0 76
-0.220658 -0.593904 -0.025723 153 0 76
-0.156520 -0.478274 0.036501 76 0 153
-0.306073 -0.386883 -0.021582 153 0 76
-0.097125 0.584491 0.044476 76 0 153
-0.317605 -0.782418 -0.008288 153 0 76
-0.114686 -0.201388 0.034473 76 0 153
0.203295 0.010251 -0.046279 153 0 76
0.283844 -0.256020 0.008262 153 0 76
0.000328 0.633304 -0.036438 153 0 76
0.156865 0.558480 0.021307 76 0 153
-0.373731 -0.635231 -0.018301 255 0 0
0.071454 -0.345437 0.036303 76 0 153
0.044072 0.211583 0.026776 76 0 153
0.253097 0.507482 0.009753 153 0 76
-0.163154 -0.049301 0.047678 76 0 153
0.043886 -0.273355 0.019897 153 0 76
-0.035866 -0.683486 0.023763 153 0 76
-0.133655 -0.023895 -0.029942 153 0 76
0.094911 -0.903736 0.017423 153 0 76
-0.381550 -0.177268 0.031254 255 0 0
-0.146203 0.054410 -0.029333 153 0 76
0.106335 -0.536909 -0.041578 153 0 76
-0.238230 0.922409 -0.011845 255 0 0
-0.154794 -0.667793 0.036418 76 0 153
-0.377417 -0.345366 0.045261 255 0 0
0.173676 0.410026 0.031346 76 0 153
-0.247807 0.339809 0.034039 153 0 76
-0.109928 0.212783 0.027354 153 0 76
0.081753 0.307382 0.018061 153 0 76
-0.173195 -0.500777 0.048164 76 0 153
0.285131 -0.485055 -0.050247 153 0 76
0.305753 -0.934105 -0.042932 255 0 0
-0.287504 0.747309 0.035964 153 0 76
-0.025035 0.178799 0.030126 76 0 153
-0.292145 -0.464987 -0.022257 153 0 76
0.308898 0.373596 -0.002235 153 0 76
0.234084 -0.525201 0.004530 153 0 76
-0.317877 0.092238 0.036198 255 0 0
-0.093683 -0.210465 0.044309 76 0 153
0.256710 0.302315 -0.048868 153 0 76
-0.185611 0.091730 0.031024 153 0 76
-0.050744 0.184276 0.042228 76 0 153
0.307508 0.251051 -0.030898 153 0 76
-0.359781 -0.746629 -0.018978 255 0 0
-0.320846 0.033728 -0.020865 255 0 0
0.172477 -0.382038 0.031404 76 0 153
0.274043 -0.693289 -0.049709 153 0 76
-0.122941 -0.349151 0.034873 76 0 153
0.307885 0.051401 -0.023131 153 0 76
-0.052540 0.351228 0.024572 153 0 76
-0.336602 -0.675141 0.052121 255 0 0
0.001504 -0.713228 -0.036495 153 0 76
-0.068847 0.183675 0.043105 76 0 153
-0.047783 -0.589245 0.042083 76 0 153
0.308364 -0.517506 -0.013241 153 0 76
0.324264 0.283590 -0.052144 255 0 0
-0.262413 -0.626966 -0.023699 153 0 76
0.022169 0.518252 0.038692 76 0 153
0.248890 -0.422662 0.009957 153 0 76
-0.308507 -0.573571 0.036982 153 0 76
-0.240858 -0.729141 0.024684 153 0 76
-0.105482 0.773150 0.027139 153 0 76
-0.013795 -0.781712 0.022693 153 0 76
0.387096 0.906256 0.002814 255 0 0
0.007668 -0.944069 0.015390 153 0 76
0.035319 0.724533 0.020751 153 0 76
-0.315194 -0.912534 0.006841 255 0 0
-0.052166 -0.268568 0.031442 76 0 153
0.024054 0.144266 -0.037588 153 0 76
-0.067733 0.079560 0.025308 153 0 76
0.228027 0.765037 0.010969 153 0 76
0.035528 0.823601 0.020302 153 0 76
0.233973 -0.128356 0.002254 153 0 76
0.012662 0.221744 0.021411 153 0 76
0.219554 -0.772418 0.011380 153 0 76
-0.183117 -0.017962 0.048033 76 0 153
-0.117475 0.396207 0.034608 76 0 153
0.362766 -0.555090 -0.054011 255 0 0
0.037108 0.347327 0.027113 76 0 153
-0.315657 0.261710 0.020014 255 0 0
-0.221867 -0.289472 0.032781 153 0 76
0.307686 -0.626646 -0.027242 153 0 76
0.008398 0.917685 0.041758 0 255 0
0.041220 -0.675286 0.020026 153 0 76
-0.039110 0.453578 0.030809 76 0 153
0.187281 0.423084 -0.045502 153 0 76
0.234482 0.137394 0.012740 153 0 76
-0.036745 -0.581949 -0.034641 153 0 76
0.218655 -0.527850 0.011423 153 0 76
0.341304 0.038856 -0.052971 255 0 0
-0.089187 -0.713695 0.035287 76 0 153
0.311649 0.323184 0.005466 255 0 0
0.079971 0.307823 0.035890 76 0 153
-0.091289 -0.066761 -0.031996 153 0 76
-0.214591 0.661865 0.023489 153 0 76
-0.346553 -0.202649 0.052604 255 0 0
0.375714 -0.860964 -0.016279 255 0 0
-0.380960 -0.062395 0.033566 255 0 0
-0.305736 -0.826817 0.036848 153 0 76
-0.086022 0.378668 -0.032251 153 0 76
-0.221357 0.880627 -0.025689 255 0 0
0.308169 0.219287 -0.017277 153 0 76
-0.018071 0.289509 0.029789 76 0 153
-0.315444 0.033836 0.036282 153 0 76
-0.156193 0.935397 -0.027432 255 0 0
0.263207 -0.075338 -0.049184 153 0 76
0.331345 -0.133234 -0.052488 255 0 0
-0.240751 -0.760411 0.026901 153 0 76
0.124769 -0.666990 0.015975 153 0 76
-0.022117 0.056354 0.023097 153 0 76
-0.003727 -0.650325 0.029093 76 0 153
0.312596 -0.306561 -0.051579 255 0 0
0.247773 0.624464 0.010011 153 0 76
-0.362445 0.158194 0.053374 255 0 0
0.077309 -0.180871 0.018276 153 0 76
0.010542 0.740178 0.012854 153 0 76
-0.270944 -0.683626 -0.023285 153 0 76
-0.315559 0.445671 0.033910 153 0 76
0.354751 -0.944635 -0.012442 255 0 0
-0.354868 0.776313 -0.019216 255 0 0
0.183504 0.580611 -0.045319 153 0 76
-0.127727 0.392382 0.045960 76 0 153
0.063357 -0.174642 0.036695 76 0 153
0.361849 0.665247 -0.053967 255 0 0
-0.178983 -0.292425 -0.027744 153 0 76
0.322809 -0.628792 -0.052074 255 0 0
0.133120 0.301454 -0.042876 153 0 76
0.307104 0.015639 -0.015451 255 0 0
-0.110486 0.391360 -0.031065 153 0 76
0.006914 -0.534904 0.039431 76 0 153
0.270240 -0.259663 0.008922 153 0 76
-0.014772 0.498024 -0.035706 153 0 76
-0.248179 -0.622492 0.034057 153 0 76
0.356022 0.648410 0.018539 255 0 0
-0.239072 -0.456549 0.023200 153 0 76
-0.151531 0.276688 -0.029075 153 0 76
-0.116466 -0.566639 -0.030775 153 0 76
0.374792 -0.418324 -0.043901 255 0 0
0.226054 0.374551 0.011136 153 0 76
0.112680 -0.793679 -0.041886 153 0 76
-0.235545 -0.106011 -0.025002 153 0 76
-0.335801 -0.911248 0.052083 255 0 0
0.286027 -0.605696 -0.050290 153 0 76
0.065435 -0.578176 0.036594 76 0 153
0.133521 0.078191 0.033293 76 0 153
-0.371965 0.700507 0.053836 255 0 0
-0.001623 0.902758 -0.036343 255 0 0
0.038225 -0.483405 0.027059 76 0 153
-0.172642 0.064305 0.048138 76 0 153
0.180910 0.416533 0.013253 153 0 76
-0.359638 -0.409194 -0.018985 255 0 0
0.308969 -0.852979 -0.000770 153 0 76
0.007102 -0.065552 -0.036766 153 0 76
0.341892 -0.943860 -0.052999 255 0 0
0.308827 -0.080479 -0.003703 153 0 76
-0.127972 0.186071 0.045972 76 0 153
0.195384 -0.213185 -0.045895 153 0 76
-0.316755 -0.316917 0.009235 153 0 76
-0.230155 -0.185840 -0.025263 153 0 76
-0.315330 -0.473708 0.014707 255 0 0
-0.121243 -0.731830 -0.030544 153 0 76
-0.374979 -0.546878 0.051388 255 0 0
-0.009659 -0.319668 -0.035954 153 0 76
0.314500 0.692358 0.013816 255 0 0
-0.075651 0.755995 0.025692 153 0 76
0.177834 -0.368153 0.013402 153 0 76
-0.368156 -0.316257 -0.018572 255 0 0
0.231145 0.522250 0.000401 153 0 76
-0.114581 -0.760605 0.017164 153 0 76
-0.202436 0.383777 -0.026607 153 0 76
0.036898 -0.288535 -0.038211 153 0 76
-0.028573 0.284116 -0.035037 153 0 76
0.308594 -0.420824 -0.008499 153 0 76
-0.240917 -0.150945 0.023481 153 0 76
0.197789 -0.761288 -0.046012 153 0 76
-0.254592 -0.069733 0.012025 76 0 153
-0.307764 0.854266 0.045393 255 0 0
-0.000005 -0.926236 0.022025 153 0 76
-0.221691 -0.943626 -0.025673 153 0 76
0.209259 0.597347 0.001462 153 0 76
-0.324647 -0.856042 0.051542 255 0 0
-0.364463 0.478140 -0.018751 255 0 0
-0.385063 0.331116 -0.015381 255 0 0
-0.014789 -0.833258 -0.035705 153 0 76
-0.059524 -0.629928 -0.033536 153 0 76
0.000289 -0.549319 -0.036436 153 0 76
-0.357014 0.511326 0.053111 255 0 0
0.185098 0.763342 -0.045396 153 0 76
0.193376 -0.732919 -0.045798 153 0 76
-0.196405 -0.082819 -0.026899 153 0 76
-0.345911 -0.718913 0.052573 255 0 0
-0.315593 -0.276316 0.033211 153 0 76
-0.384975 -0.735224 -0.017048 255 0 0
-0.344268 -0.945608 0.010828 255 0 0
-0.289061 0.761778 0.036039 153 0 76
0.115182 -0.725879 0.015372 153 0 76
0.343130 -0.062576 0.019164 255 0 0
0.049655 -0.343213 -0.038830 153 0 76
0.006849 0.692208 0.021692 153 0 76
0.011939 -0.617233 0.039188 76 0 153
0.090348 -0.304424 -0.040803 153 0 76
0.307838 -0.347377 -0.024102 153 0 76
-0.321535 -0.610241 0.050220 255 0 0
0.282968 0.244822 0.008305 153 0 76
0.204013 -0.311283 -0.046314 153 0 76
0.161584 -0.437192 -0.044257 153 0 76
0.107208 0.017567 -0.041620 153 0 76
-0.358927 -0.064964 -0.019019 255 0 0
0.117395 -0.749241 -0.042114 153 0 76
0.052328 -0.599240 0.019487 153 0 76
-0.096987 -0.662891 0.033615 76 0 153
0.078180 -0.229392 -0.040213 153 0 76
-0.053226 0.639918 0.031493 76 0 153
-0.328988 -0.163444 0.051752 255 0 0
0.375035 -0.300704 -0.008512 255 0 0
0.112794 0.181917 -0.041891 153 0 76
-0.240808 -0.693979 0.025733 153 0 76
0.177030 0.164025 0.031184 76 0 153
0.130995 -0.944069 -0.009688 153 0 76
0.160820 0.128968 -0.044219 153 0 76
-0.370234 0.283989 0.053752 255 0 0
-0.209112 0.154508 -0.026283 153 0 76
0.306140 -0.637067 -0.050308 255 0 0
-0.374140 0.250100 0.053457 255 0 0
0.364595 -0.920754 -0.054100 255 0 0
-0.024092 -0.758648 0.025301 153 0 76
-0.315678 -0.164903 0.020259 255 0 0
-0.129332 0.243194 -0.030151 153 0 76
-0.115783 0.685004 0.027638 153 0 76
0.297068 -0.863512 -0.050826 153 0 76
-0.036948 0.425450 0.041559 76 0 153
-0.054725 0.199304 0.031566 76 0 153
0.013673 -0.685132 0.028249 76 0 153
-0.385238 0.213632 -0.012033 255 0 0
-0.385202 0.364507 0.005571 255 0 0
-0.023077 -0.385878 -0.035303 153 0 76
0.177358 -0.347284 0.013425 153 0 76
-0.113778 0.238610 0.027541 153 0 76
0.202070 0.617271 0.001811 153 0 76
0.107481 0.101053 0.023701 76 0 153
-0.234583 -0.561760 0.035507 153 0 76
0.306058 0.732639 -0.025755 255 0 0
0.081664 0.660081 0.031733 76 0 153
0.229384 -0.059760 -0.047544 153 0 76
0.120515 -0.492335 0.023069 76 0 153
0.075585 -0.134159 0.018360 153 0 76
0.313198 -0.474213 0.010188 255 0 0
-0.044248 -0.027030 0.024170 153 0 76
0.125145 0.557517 0.022845 76 0 153
0.242763 0.382805 0.010254 153 0 76
-0.180869 -0.106428 0.030794 153 0 76
0.286606 -0.694178 0.008129 153 0 76
-0.105268 -0.549113 0.034016 76 0 153
0.139452 0.050417 0.033006 76 0 153
0.342299 0.859546 -0.053018 255 0 0
-0.301936 0.486721 0.036664 153 0 76
0.149165 0.936497 -0.024564 255 0 0
0.257346 -0.158120 -0.048899 153 0 76
-0.092676 0.642810 -0.031928 153 0 76
-0.076823 -0.299831 0.025749 153 0 76
-0.111907 -0.049658 0.027450 153 0 76
-0.126599 0.318298 -0.030284 153 0 76
0.375906 0.254509 -0.023362 255 0 0
0.030529 -0.740749 0.020544 153 0 76
0.374462 -0.003250 -0.046404 255 0 0
-0.179768 0.479653 0.030740 153 0 76
0.075026 0.276858 0.018387 153 0 76
0.234138 -0.931662 -0.047775 153 0 76
-0.089944 0.403827 0.044128 76 0 153
-0.054064 0.489621 0.031534 76 0 153
-0.385447 -0.124340 -0.003931 255 0 0
0.080134 -0.075281 0.035882 76 0 153
0.003036 0.941667 0.020532 255 0 0
0.150554 0.296914 0.014725 153 0 76
-0.316082 -0.114182 0.024885 255 0 0
-0.081594 0.524420 0.032869 76 0 153
-0.355998 -0.372208 0.053062 255 0 0
0.052689 0.584336 0.019470 153 0 76
0.317147 -0.825591 0.020342 255 0 0
-0.134962 0.717301 0.028568 153 0 76
0.024228 0.932088 -0.010359 0 255 0
-0.315330 0.543940 0.003133 255 0 0
-0.374605 0.806137 0.052313 255 0 0
0.225208 0.415959 -0.047341 153 0 76
0.213140 -0.273820 -0.046756 153 0 76
0.164192 -0.733981 0.003647 153 0 76
-0.385738 0.860318 -0.006686 255 0 0
0.029470 -0.920099 -0.037851 153 0 76
-0.094267 0.684358 -0.031851 153 0 76
-0.336127 0.898570 -0.020125 255 0 0
-0.220466 0.781319 -0.025733 153 0 76
-0.002291 0.529488 0.029024 76 0 153
-0.377893 0.355934 -0.018100 255 0 0
-0.319242 0.625755 0.042304 255 0 0
0.140020 -0.097212 -0.043211 153 0 76
-0.384587 -0.235677 -0.017775 255 0 0
0.104051 0.083629 0.023868 76 0 153
-0.177908 0.535321 -0.027796 153 0 76
0.236025 -0.803405 0.010581 153 0 76
-0.315447 -0.848930 -0.000054 255 0 0
0.203068 -0.058276 0.012179 153 0 76
0.041145 -0.469967 0.026918 76 0 153
0.006361 -0.520812 0.021716 153 0 76
-0.235020 0.343543 -0.025027 153 0 76
0.346104 0.822403 0.019020 255 0 0
0.041881 -0.895963 -0.038453 153 0 76
0.129478 -0.815187 0.015747 153 0 76
-0.378368 0.727332 0.042363 255 0 0
-0.263398 0.289966 -0.023651 153 0 76
0.251819 0.859765 -0.048631 255 0 0
0.176089 -0.586132 0.013487 153 0 76
-0.110421 0.290272 -0.031068 153 0 76
-0.270924 -0.469255 0.035160 153 0 76
-0.316543 -0.613367 0.013627 153 0 76
-0.065824 -0.520021 0.025216 153 0 76
-0.223749 0.360724 -0.025574 153 0 76
0.171625 -0.796702 0.013703 153 0 76
0.044059 0.894560 -0.038558 255 0 0
0.097323 -0.417419 -0.041141 153 0 76
-0.197314 0.689896 -0.026855 153 0 76
-0.024286 -0.638182 -0.035245 153 0 76
-0.377054 -0.848303 0.046275 255 0 0
0.156603 0.226736 0.021320 76 0 153
0.028120 -0.300459 0.020661 153 0 76
-0.194163 0.060988 0.031438 153 0 76
-0.051105 0.901596 -0.033944 255 0 0
0.286678 -0.712472 -0.050322 153 0 76
0.307396 0.079812 -0.033207 153 0 76
0.117729 0.937162 0.015545 255 0 0
-0.069981 -0.030865 0.032305 76 0 153
0.080433 -0.303401 0.018125 153 0 76
0.008976 -0.006469 -0.036857 153 0 76
0.006965 0.027348 0.039429 76 0 153
0.045913 -0.944069 -0.003398 153 0 76
0.383285 0.922594 -0.039879 255 0 0
0.048741 -0.647994 0.019661 153 0 76
-0.163946 0.111513 0.029973 153 0 76
-0.230891 -0.383036 0.033219 153 0 76
0.193152 -0.046320 -0.045787 153 0 76
-0.370601 -0.910414 0.053770 255 0 0
-0.026826 -0.517285 0.030213 76 0 153
-0.347302 -0.103317 -0.019583 255 0 0
-0.030817 0.564409 0.041261 76 0 153
0.375753 0.582405 -0.016939 255 0 0
-0.006621 -0.265445 -0.036101 153 0 76
-0.373823 -0.583469 0.053926 255 0 0
0.111540 0.521372 0.023505 76 0 153
-0.282862 -0.432747 -0.022707 153 0 76
0.272130 -0.524119 0.008830 153 0 76
-0.228868 -0.874519 0.033121 153 0 76
-0.125818 -0.432807 -0.030322 153 0 76
-0.383832 -0.427570 0.019636 255 0 0
-0.320179 0.246652 0.045651 255 0 0
-0.306159 -0.602438 0.036868 153 0 76
-0.153304 0.057469 0.036345 76 0 153
0.298799 0.301477 0.007537 153 0 76
-0.124073 0.201047 0.028040 153 0 76
-0.084053 -0.215398 0.032988 76 0 153
0.104530 -0.286671 0.034699 76 0 153
-0.074340 -0.406980 0.025629 153 0 76
0.067371 0.543489 0.018758 153 0 76
-0.121777 -0.213405 0.034817 76 0 153
-0.384158 0.649950 0.016949 255 0 0
-0.040255 -0.340823 0.023976 153 0 76
-0.249748 -0.339159 0.034133 153 0 76
-0.061778 -0.010181 0.031908 76 0 153
0.213726 -0.032896 0.011662 153 0 76
0.110882 -0.920590 -0.041798 153 0 76
-0.349708 0.838563 0.052757 255 0 0
0.152920 -0.597936 -0.043837 153 0 76
0.057299 0.570535 0.036989 76 0 153
-0.091232 -0.465602 0.033336 76 0 153
-0.385386 -0.218798 -0.009222 255 0 0
0.224895 0.011040 -0.047326 153 0 76
-0.296285 -0.200528 -0.022057 153 0 76
-0.053428 0.209468 -0.033832 153 0 76
-0.275767 -0.790172 0.035395 153 0 76
0.158770 0.261703 0.032069 76 0 153
-0.161146 0.891698 0.043614 255 0 0
-0.269517 0.076170 -0.023354 153 0 76
0.119736 0.498748 0.016219 153 0 76
0.288573 0.288285 0.008033 153 0 76
-0.142545 -0.187003 -0.029511 153 0 76
0.155678 0.421927 0.032219 76 0 153
-0.239611 0.248749 0.023226 153 0 76
0.196688 -0.599683 0.012488 153 0 76
0.306715 -0.743079 -0.047252 153 0 76
0.341254 0.019646 -0.052968 255 0 0
0.295254 0.879216 -0.050738 255 0 0
0.037860 0.233184 0.027077 76 0 153
0.260254 0.396822 -0.049040 153 0 76
0.118494 -0.064485 0.023167 76 0 153
-0.047275 0.280934 0.042059 76 0 153
-0.305481 -0.704379 -0.021611 153 0 76
-0.316016 0.346066 0.024494 153 0 76
-0.084128 -0.399501 0.043846 76 0 153
-0.157681 -0.618467 0.047412 76 0 153
-0.132865 -0.173192 -0.029980 153 0 76
0.319545 0.705085 0.020308 255 0 0
0.147056 0.330077 0.014895 153 0 76
-0.323924 0.165679 0.051507 255 0 0
0.122626 -0.190898 0.022967 76 0 153
0.280473 -0.505199 -0.050021 153 0 76
-0.177068 -0.634923 0.030609 153 0 76
-0.368483 -0.566532 0.053667 255 0 0
0.339126 -0.107087 0.019358 255 0 0
-0.066440 -0.856775 -0.033201 153 0 76
-0.165323 0.530169 0.030040 153 0 76
0.309263 -0.345072 0.005297 153 0 76
-0.385300 -0.112936 0.003944 255 0 0
0.305683 0.743097 -0.036741 255 0 0
0.375048 0.336503 -0.008666 255 0 0
0.201130 -0.130377 0.012273 153 0 76
-0.315377 -0.823907 0.016699 255 0 0
0.367656 0.277603 -0.054248 255 0 0
0.074067 -0.834447 0.018433 153 0 76
0.011420 0.684268 -0.036975 153 0 76
-0.315781 0.512599 0.029330 153 0 76
0.145709 0.115741 0.032702 76 0 153
0.096001 -0.342594 0.035112 76 0 153
-0.282035 0.365643 -0.022748 153 0 76
-0.315593 -0.698098 0.033202 153 0 76
-0.124908 0.108699 0.034969 76 0 153
-0.000929 -0.041625 -0.036377 153 0 76
-0.319381 -0.142208 0.042925 255 0 0
0.305930 -0.823736 -0.046313 255 0 0
-0.232121 0.830395 0.033279 153 0 76
0.275052 -0.493375 0.008689 153 0 76
-0.312935 0.188361 -0.021249 153 0 76
0.061673 0.048571 -0.039412 153 0 76
-0.243828 0.450305 0.033846 153 0 76
0.375539 -0.721232 -0.036021 255 0 0
-0.134728 0.045116 0.035445 76 0 153
-0.100019 0.835865 -0.031572 153 0 76
-0.038518 0.325552 0.041635 76 0 153
0.350469 -0.258265 0.018808 255 0 0
0.340535 0.375817 0.019290 255 0 0
-0.119703 -0.425846 0.034716 76 0 153
0.053189 -0.021743 0.026334 76 0 153
0.017169 -0.291957 0.021192 153 0 76
-0.011359 -0.870935 0.022575 153 0 76
0.047446 -0.454017 -0.038723 153 0 76
-0.126559 0.480222 0.035049 76 0 153
-0.381053 -0.556556 0.033202 255 0 0
0.246871 -0.027312 -0.048391 153 0 76
-0.077818 0.323477 0.025797 153 0 76
-0.343177 0.127938 -0.019783 255 0 0
-0.064192 0.760489 -0.033309 153 0 76
-0.001339 -0.677913 0.028977 76 0 153
-0.168993 -0.762899 0.023986 153 0 76
0.368877 -0.426262 -0.054307 255 0 0
-0.152075 0.486032 -0.029049 153 0 76
-0.157607 0.351676 0.047409 76 0 153
-0.010561 -0.663696 0.029424 76 0 153
0.127561 -0.149161 0.015840 153 0 76
-0.285843 -0.340817 -0.022563 153 0 76
-0.218522 -0.035066 0.032619 153 0 76
-0.317629 0.069742 -0.008780 153 0 76
0.128591 0.818000 -0.042656 153 0 76
-0.192895 0.300409 0.031377 153 0 76
0.017654 0.860545 0.034945 255 0 0
0.307158 -0.673717 -0.038131 153 0 76
0.212531 -0.143619 0.011720 153 0 76
0.017947 -0.354561 0.028042 76 0 153
-0.279387 0.418989 -0.022876 153 0 76
0.086466 -0.720064 -0.040615 153 0 76
0.178939 0.675291 0.013349 153 0 76
-0.028715 -0.433060 -0.035030 153 0 76
-0.137892 -0.424038 0.046452 76 0 153
-0.385433 0.778561 0.001630 255 0 0
0.017369 0.468503 0.038925 76 0 153
-0.308779 -0.095918 0.036995 153 0 76
0.258559 -0.047700 0.009488 153 0 76
-0.139554 -0.440488 0.046533 76 0 153
-0.094532 -0.866236 -0.031839 153 0 76
0.225827 -0.208675 0.006442 153 0 76
-0.339538 0.538224 0.052264 255 0 0
0.074771 0.146068 0.036142 76 0 153
-0.368269 0.425640 0.053657 255 0 0
-0.348600 0.906794 0.052703 255 0 0
-0.315635 -0.378206 0.032354 153 0 76
0.133846 -0.298986 0.033277 76 0 153
-0.236350 -0.083356 0.023068 153 0 76
-0.150900 0.570058 0.029341 153 0 76
0.101044 -0.484775 0.034868 76 0 153
0.172018 -0.172626 -0.044762 153 0 76
0.104351 -0.773856 0.016965 153 0 76
-0.023921 0.070177 -0.035262 153 0 76
0.137959 0.009558 0.033078 76 0 153
-0.275264 0.003260 -0.019896 153 0 76
-0.262762 0.914737 0.037662 255 0 0
-0.074322 0.355567 -0.032819 153 0 76
0.268639 0.706596 -0.049446 153 0 76
-0.379606 -0.643297 0.038589 255 0 0
-0.378173 0.814041 -0.018086 255 0 0
-0.242270 0.608825 -0.024676 153 0 76
0.200732 -0.648984 0.012292 153 0 76
0.267427 0.744159 -0.049388 153 0 76
-0.105827 -0.467770 0.034043 76 0 153
0.191741 0.704227 -0.045718 153 0 76
-0.185880 -0.379252 0.037925 76 0 153
-0.385444 0.755064 -0.002711 255 0 0
-0.046411 -0.429509 -0.034172 153 0 76
0.086507 -0.872655 0.017830 153 0 76
-0.247402 0.379803 0.034019 153 0 76
0.065037 -0.163243 0.025759 76 0 153
-0.305029 0.582288 0.036813 153 0 76
0.249873 0.912584 -0.048537 255 0 0
-0.240807 0.538605 0.025746 153 0 76
-0.034258 -0.000790 0.023685 153 0 76
-0.050315 -0.371227 -0.033983 153 0 76
-0.095321 0.470269 -0.031800 153 0 76
0.343623 -0.025965 -0.053083 255 0 0
-0.040206 -0.477127 -0.034473 153 0 76
-0.111738 0.077951 0.027442 153 0 76
0.207168 0.357149 -0.046466 153 0 76
0.314793 -0.941917 0.004519 255 0 0
0.147337 -0.412687 0.021769 76 0 153
0.098366 -0.242737 0.017255 153 0 76
-0.040423 -0.518383 -0.034462 153 0 76
0.248712 0.687681 0.009966 153 0 76
-0.282728 -0.736542 0.035732 153 0 76
0.095863 -0.389163 0.035119 76 0 153
-0.122594 -0.320860 -0.030478 153 0 76
-0.105892 0.017341 0.034047 76 0 153
-0.103476 0.418431 -0.031405 153 0 76
-0.358361 0.863565 0.053176 255 0 0
-0.034234 0.556755 0.030573 76 0 153
0.239826 -0.694823 0.010397 153 0 76
0.067210 0.377221 0.018766 153 0 76
-0.125398 0.890098 0.041881 255 0 0
0.072141 0.633327 -0.039919 153 0 76
0.118594 -0.162806 -0.042172 153 0 76
-0.004675 0.848959 0.008148 153 0 76
-0.243560 -0.186148 0.033833 153 0 76
0.021478 0.903147 0.041124 0 255 0
0.121459 -0.556288 -0.042311 153 0 76
-0.033608 0.497881 0.041397 76 0 153
-0.313865 -0.082410 0.037242 153 0 76
-0.179878 -0.442513 0.037634 76 0 153
-0.223064 -0.170838 0.032839 153 0 76
0.374409 0.752745 -0.046755 255 0 0
0.146652 0.075516 -0.043532 153 0 76
0.103347 0.341778 0.023902 76 0 153
0.372200 -0.463431 0.007382 255 0 0
0.276196 -0.134158 -0.049813 153 0 76
0.268666 0.236198 0.008998 153 0 76
-0.037937 0.057637 0.023864 153 0 76
0.078983 0.093848 0.025083 76 0 153
-0.077971 -0.773171 -0.032642 153 0 76
-0.158941 -0.585510 0.047473 76 0 153
0.084354 -0.210641 0.035677 76 0 153
0.241442 -0.103952 -0.048128 153 0 76
-0.097113 0.203712 0.044476 76 0 153
0.081126 -0.047223 0.024979 76 0 153
0.132727 0.242057 0.015589 153 0 76
0.187881 0.929739 -0.016159 255 0 0
0.169167 0.125967 0.031565 76 0 153
-0.265267 -0.642281 0.034886 153 0 76
0.081753 0.337444 0.024949 76 0 153
-0.318351 -0.680824 0.038320 255 0 0
-0.054086 0.168837 0.031535 76 0 153
0.375717 -0.065962 -0.032526 255 0 0
0.119395 -0.518484 -0.042211 153 0 76
-0.149730 0.848733 -0.029162 255 0 0
0.067528 0.403836 0.025639 76 0 153
0.041282 -0.070025 0.037766 76 0 153
-0.056724 0.793812 0.024775 153 0 76
0.002508 -0.067470 0.039646 76 0 153
-0.093508 0.316868 -0.031888 153 0 76
-0.112480 0.854152 0.035601 255 0 0
0.283756 0.660147 0.008267 153 0 76
-0.351147 0.847439 -0.019396 255 0 0
0.183901 -0.445480 0.026273 76 0 153
-0.111985 -0.828586 -0.030993 153 0 76
0.035629 -0.505238 0.020297 153 0 76
0.305674 -0.731262 -0.040388 255 0 0
0.306340 -0.078609 -0.021747 255 0 0
0.275736 0.825966 -0.049790 153 0 76
-0.251790 0.037099 0.015677 76 0 153
-0.054464 -0.637720 0.042407 76 0 153
-0.308433 -0.421124 0.036978 153 0 76
0.002219 0.165667 0.039660 76 0 153
0.292037 0.584304 -0.050581 153 0 76
-0.067259 0.318863 0.043028 76 0 153
-0.104152 -0.929223 -0.031372 153 0 76
-0.208503 -0.525451 -0.026313 153 0 76
0.003268 -0.253911 0.021866 153 0 76
0.154454 -0.012281 0.032278 76 0 153
-0.045679 -0.135329 0.031127 76 0 153
-0.028707 -0.202676 0.023416 153 0 76
-0.049256 -0.420163 0.042155 76 0 153
0.229074 -0.312969 0.000502 153 0 76
-0.321546 -0.111181 0.050257 255 0 0
-0.205264 -0.664899 -0.026470 153 0 76
0.193794 0.261057 0.012628 153 0 76
0.355730 0.905603 0.018554 255 0 0
-0.071996 0.266989 -0.032931 153 0 76
0.325858 -0.078322 0.020002 255 0 0
0.080520 -0.322597 0.025008 76 0 153
0.306072 -0.068776 0.007185 153 0 76
0.162726 0.349487 0.021023 76 0 153
0.119831 0.735630 -0.042232 153 0 76
0.017099 -0.230842 0.028083 76 0 153
-0.111641 -0.163151 -0.031009 153 0 76
0.277776 -0.549083 -0.049890 153 0 76
0.042461 -0.310834 0.026854 76 0 153
0.040796 -0.712418 0.032437 76 0 153
0.006031 0.236241 0.021732 153 0 76
-0.385440 0.199503 -0.001209 255 0 0
0.373471 0.391378 0.001697 255 0 0
0.330554 0.625786 0.019774 255 0 0
0.029615 0.187716 -0.037858 153 0 76
0.048794 0.726928 0.021767 153 0 76
-0.067525 -0.605778 -0.033148 153 0 76
0.050884 0.867275 0.033334 255 0 0
0.293503 -0.367100 -0.050653 153 0 76
0.042508 -0.781723 0.019963 153 0 76
-0.088702 0.008143 0.033213 76 0 153
-0.036385 -0.343482 0.041531 76 0 153
-0.092114 0.311681 0.026490 153 0 76
0.226193 -0.635188 0.000642 153 0 76
-0.182551 0.376177 0.048343 76 0 153
-0.335282 -0.149789 -0.020166 255 0 0
-0.149108 -0.860099 -0.029193 153 0 76
0.097660 -0.586343 0.024177 76 0 153
0.331077 0.220517 0.019749 255 0 0
0.371724 0.903638 -0.054445 255 0 0
0.312252 0.491198 0.007305 255 0 0
0.352821 -0.531230 0.018694 255 0 0
-0.189329 -0.417488 0.031204 153 0 76
0.307889 0.835261 -0.023051 153 0 76
0.134477 -0.091487 0.033247 76 0 153
0.245524 0.246729 -0.048326 153 0 76
0.222822 0.689079 0.011221 153 0 76
-0.363541 -0.241578 -0.018795 255 0 0
-0.214828 0.748618 0.032440 153 0 76
-0.339888 0.218114 -0.019942 255 0 0
0.195328 -0.390153 0.012554 153 0 76
0.357081 -0.032467 0.018487 255 0 0
-0.181726 0.191720 0.030835 153 0 76
-0.022600 0.226284 0.023120 153 0 76
0.091116 0.652295 0.017607 153 0 76
-0.071681 -0.084228 0.032388 76 0 153
0.308643 -0.312972 -0.006446 255 0 0
-0.007098 -0.384850 0.029256 76 0 153
-0.066872 0.278743 0.043010 76 0 153
0.042888 0.621638 0.037688 76 0 153
0.017248 -0.113834 0.028076 76 0 153
0.195754 -0.506025 0.012533 153 0 76
-0.379973 -0.281600 0.037441 255 0 0
-0.334702 -0.195407 0.052029 255 0 0
-0.231428 0.379436 -0.025201 153 0 76
-0.240105 0.691941 0.033666 153 0 76
0.184465 -0.164607 0.013081 153 0 76
0.167075 0.539566 0.031666 76 0 153
0.024475 -0.490237 0.027725 76 0 153
-0.221524 -0.458988 -0.025681 153 0 76
0.313217 -0.325832 0.010247 255 0 0
0.101856 0.068468 0.023974 76 0 153
0.251239 -0.678941 -0.048604 153 0 76
0.098000 -0.644930 -0.041174 153 0 76
0.375128 -0.550597 -0.040351 255 0 0
-0.006960 0.341177 0.029250 76 0 153
-0.045658 -0.680064 0.041980 76 0 153
-0.363102 -0.169658 -0.018817 255 0 0
0.046173 0.935065 0.025800 0 255 0
0.064970 -0.773598 0.018874 153 0 76
0.032166 -0.583364 0.027353 76 0 153
-0.351242 0.919753 0.040381 255 0 0
0.122157 -0.714454 0.008980 153 0 76
0.306205 0.294950 -0.051269 255 0 0
-0.342149 -0.026992 0.052390 255 0 0
-0.272262 -0.129993 0.035225 153 0 76
0.303144 -0.113814 0.007327 153 0 76
-0.124827 -0.442838 0.045819 76 0 153
-0.317227 -0.737525 -0.016632 255 0 0
-0.350253 0.037996 -0.019440 255 0 0
-0.146425 0.125815 0.046867 76 0 153
0.375286 0.610119 -0.011390 255 0 0
-0.385454 -0.838026 -0.007115 255 0 0
0.247051 0.524516 0.010046 153 0 76
-0.240334 0.525454 0.023261 153 0 76
0.102172 -0.119016 0.034813 76 0 153
0.116441 -0.645844 -0.042068 153 0 76
-0.381282 0.299496 0.032306 255 0 0
-0.051531 0.924391 -0.033923 255 0 0
-0.110227 -0.384925 0.045111 76 0 153
0.078115 -0.392922 0.025125 76 0 153
0.309457 0.331414 -0.051426 255 0 0
0.180728 -0.687117 0.013262 153 0 76
-0.322666 -0.908894 0.051446 255 0 0
-0.284108 0.556854 -0.022647 153 0 76
0.267502 -0.515505 -0.049392 153 0 76
0.308004 -0.807614 -0.020679 153 0 76
0.272095 0.124359 0.008832 153 0 76
-0.018086 -0.943589 0.022901 153 0 76
0.007104 -0.705862 0.021680 153 0 76
-0.157511 -0.397039 0.047404 76 0 153
0.373358 -0.242108 -0.053741 255 0 0
0.001800 0.738991 0.024046 153 0 76
-0.180428 -0.046467 0.048515 76 0 153
0.372765 0.756106 0.004852 255 0 0
-0.200613 0.870127 0.045528 255 0 0
0.005198 0.715897 0.021772 153 0 76
0.027587 0.860060 -0.037759 255 0 0
0.008289 0.060892 0.028511 76 0 153
0.101120 0.811577 -0.041324 153 0 76
0.207464 0.564841 0.011966 153 0 76
-0.160301 0.271345 0.029796 153 0 76
-0.055903 0.945826 -0.014654 255 0 0
-0.182618 0.929260 0.021415 255 0 0
0.160108 -0.545815 0.021150 76 0 153
-0.226943 -0.506789 -0.025419 153 0 76
-0.043569 0.508535 0.041880 76 0 153
0.188337 -0.794644 -0.045554 153 0 76
-0.269780 0.904672 0.048882 255 0 0
0.247419 -0.061788 0.010029 153 0 76
-0.071026 0.727215 -0.032978 153 0 76
-0.110822 -0.024245 0.027398 153 0 76
0.179163 -0.769116 -0.045109 153 0 76
0.119818 -0.439071 -0.042232 153 0 76
-0.187958 0.586340 -0.027309 153 0 76
0.332268 -0.920948 -0.052532 255 0 0
-0.063129 0.066104 0.031973 76 0 153
0.178236 -0.242528 0.013383 153 0 76
-0.094056 0.617358 0.044327 76 0 153
-0.316076 -0.723787 0.024813 255 0 0
-0.128445 0.533689 -0.030194 153 0 76
-0.181392 -0.153661 -0.027627 153 0 76
-0.137608 0.211614 0.035584 76 0 153
0.040008 0.719086 -0.038361 153 0 76
-0.316018 -0.137473 0.024451 153 0 76
0.194744 -0.629757 0.012582 153 0 76
-0.173545 -0.426560 0.037327 76 0 153
0.035481 0.059166 0.020304 153 0 76
0.334973 0.878250 0.019560 255 0 0
0.116875 0.232381 0.016358 153 0 76
0.103880 0.476299 0.023876 76 0 153
-0.020074 -0.916899 0.022998 153 0 76
-0.317466 0.269114 -0.005417 153 0 76
-0.023034 -0.510324 0.040883 76 0 153
0.055711 -0.695191 0.037065 76 0 153
-0.367643 -0.445209 -0.018597 255 0 0
0.107285 0.853442 -0.041624 255 0 0
0.306070 0.521473 -0.025543 255 0 0
-0.059514 -0.843253 0.024910 153 0 76
-0.016046 -0.923032 -0.035644 153 0 76
0.065576 0.077206 0.018845 153 0 76
0.142172 0.356277 0.032874 76 0 153
-0.383293 -0.127907 0.022719 255 0 0
0.245494 -0.383116 0.010122 153 0 76
-0.122204 0.133394 0.027949 153 0 76
-0.238937 -0.201776 0.035718 153 0 76
0.044970 -0.632204 0.037586 76 0 153
-0.206367 0.523308 0.032030 153 0 76
-0.124533 0.088924 0.034950 76 0 153
-0.097268 0.630844 0.044483 76 0 153
-0.065697 0.533729 -0.033237 153 0 76
0.164484 -0.462155 0.031792 76 0 153
-0.376260 -0.713034 0.048234 255 0 0
0.145216 -0.236735 0.021872 76 0 153
-0.109661 0.521063 0.027341 153 0 76
0.248850 0.801013 0.009959 153 0 76
-0.213029 -0.619054 -0.026093 153 0 76
-0.080011 0.671877 0.025904 153 0 76
-0.042499 -0.564015 0.024085 153 0 76
0.308910 -0.767067 -0.001982 153 0 76
-0.264303 0.243439 0.034839 153 0 76
-0.095787 -0.588872 0.044411 76 0 153
-0.025899 0.334430 -0.035166 153 0 76
-0.040770 -0.667671 0.041743 76 0 153
0.225634 -0.186062 0.002477 153 0 76
0.342370 0.686497 -0.053022 255 0 0
-0.070607 0.345925 0.032336 76 0 153
-0.154791 0.290677 0.029529 153 0 76
0.026748 0.935632 -0.037719 255 0 0
-0.251611 0.017179 0.014601 76 0 153
-0.317012 -0.370217 -0.021052 153 0 76
-0.178434 -0.113744 0.048418 76 0 153
0.126717 -0.037967 0.015881 153 0 76
0.004041 0.465448 0.039571 76 0 153
-0.035365 0.570879 0.030627 76 0 153
0.290871 0.217076 0.007922 153 0 76
-0.073561 -0.554143 0.032479 76 0 153
-0.119840 0.330972 0.027835 153 0 76
0.309274 -0.592253 -0.051418 255 0 0
-0.166554 0.336743 0.030100 153 0 76
-0.106493 0.884178 -0.031259 255 0 0
0.305892 0.008523 -0.045586 255 0 0
0.374025 0.373604 -0.001603 255 0 0
-0.317343 0.769815 -0.002877 153 0 76
0.305684 -0.165791 -0.036375 255 0 0
0.065478 -0.811912 0.018850 153 0 76
-0.315311 0.588334 0.013928 255 0 0
0.205823 -0.670933 -0.046402 153 0 76
0.353471 0.627251 -0.053560 255 0 0
-0.076275 -0.608317 0.032611 76 0 153
0.370435 -0.795359 0.013867 255 0 0
-0.275218 -0.241889 0.035368 153 0 76
0.233236 -0.385615 0.000300 153 0 76
0.309013 0.409193 -0.004472 255 0 0
0.309217 0.088012 0.007032 153 0 76
0.374889 0.152035 -0.042873 255 0 0
0.151509 -0.933291 0.014679 153 0 76
0.147516 -0.490857 0.032615 76 0 153
0.126503 -0.511918 0.022779 76 0 153
0.225588 -0.615415 0.001519 153 0 76
-0.316937 0.232167 0.005482 153 0 76
-0.366540 0.864997 -0.018650 255 0 0
-0.014303 0.154458 -0.035729 153 0 76
-0.125736 0.586348 0.035009 76 0 153
0.380075 0.884987 -0.037026 255 0 0
0.303113 0.458211 -0.051118 153 0 76
0.308620 -0.690726 -0.006574 255 0 0
0.079075 0.517607 0.025079 76 0 153
-0.007210 -0.004919 0.040117 76 0 153
0.002346 0.098681 -0.036536 153 0 76
0.040097 -0.402743 0.037823 76 0 153
0.131302 -0.506537 -0.042788 153 0 76
0.050230 -0.125544 0.026477 76 0 153
-0.205532 0.371034 0.031989 153 0 76
0.330664 0.172276 -0.052455 255 0 0
0.232879 -0.016983 0.000317 153 0 76
0.166127 0.716144 -0.044476 153 0 76
0.103691 0.179571 0.034740 76 0 153
0.062175 0.667818 0.025898 76 0 153
-0.250317 0.014891 0.074482 76 153 0
-0.034033 -0.564434 -0.034772 153 0 76
0.332138 -0.047256 -0.052526 255 0 0
-0.315179 0.387118 0.008419 255 0 0
-0.310026 -0.303664 0.037056 153 0 76
0.307132 0.648578 -0.038661 153 0 76
-0.248818 -0.301024 0.034088 153 0 76
0.076491 0.732968 -0.040130 153 0 76
-0.266452 -0.092170 0.016497 76 0 153
-0.221381 0.549828 0.032758 153 0 76
0.025493 -0.252710 0.020788 153 0 76
-0.221843 0.578148 -0.025666 153 0 76
-0.315793 -0.914430 0.029085 153 0 76
-0.068593 -0.479489 -0.033096 153 0 76
-0.274094 0.754606 0.035314 153 0 76
0.042384 -0.293740 0.037712 76 0 153
-0.167790 -0.843806 -0.028287 153 0 76
-0.159193 0.772534 -0.028703 153 0 76
0.225953 -0.003399 0.009035 153 0 76
-0.238145 0.442703 0.023155 153 0 76
-0.240965 0.752831 0.033707 153 0 76
-0.317824 0.670786 -0.012811 153 0 76
-0.098692 -0.063703 0.044552 76 0 153
-0.333417 0.921809 0.001593 255 0 0
0.375683 0.845928 -0.033446 255 0 0
0.308085 -0.650797 -0.019006 153 0 76
-0.080262 -0.151369 0.025916 153 0 76
-0.190416 0.833457 0.031257 153 0 76
0.255318 -0.859500 -0.048801 153 0 76
-0.075853 0.572396 -0.032744 153 0 76
-0.052323 0.550069 0.042304 76 0 153
-0.013856 -0.322355 0.040439 76 0 153
-0.032237 -0.944069 0.001347 153 0 76
0.207595 -0.904485 0.011959 153 0 76
0.128283 -0.668043 0.031647 76 0 153
-0.178259 0.412035 -0.027779 153 0 76
-0.159674 0.385254 0.036654 76 0 153
-0.139556 0.124699 0.035679 76 0 153
0.153844 0.138645 0.021454 76 0 153
-0.384430 -0.825195 0.014711 255 0 0
-0.385403 0.659546 -0.008886 255 0 0
-0.000327 -0.549382 0.022040 153 0 76
-0.031188 0.675396 -0.034910 153 0 76
-0.126741 -0.121531 0.045912 76 0 153
0.162149 -0.019813 0.014163 153 0 76
-0.186691 0.186071 -0.027370 153 0 76
-0.081366 -0.035320 0.025969 153 0 76
-0.232365 -0.630667 0.027650 153 0 76
-0.371951 -0.517600 0.053835 255 0 0
0.022139 -0.265915 0.038693 76 0 153
-0.046084 0.088416 0.031147 76 0 153
-0.315571 0.233427 0.019039 255 0 0
-0.059106 0.502577 0.042633 76 0 153
-0.264502 -0.030983 0.012506 76 0 153
0.016780 -0.144916 -0.037236 153 0 76
-0.366003 0.015765 0.053547 255 0 0
0.019481 0.129244 -0.037367 153 0 76
0.106458 -0.091080 -0.041584 153 0 76
0.236402 0.847495 -0.035120 255 0 0
-0.257973 0.821939 -0.023914 153 0 76
-0.019015 -0.185558 -0.035500 153 0 76
-0.259723 0.880876 -0.023829 255 0 0
-0.054094 0.542106 0.031535 76 0 153
0.159020 -0.449319 0.021202 76 0 153
-0.011642 -0.582008 0.040331 76 0 153
0.157198 0.005523 0.021291 76 0 153
0.187425 0.125326 0.012937 153 0 76
0.121640 0.154186 0.033869 76 0 153
0.260386 -0.747363 -0.049047 153 0 76
-0.086546 0.428136 0.033109 76 0 153
-0.041016 -0.419848 0.024013 153 0 76
-0.237038 -0.333254 0.035626 153 0 76
-0.320833 0.548648 0.047856 255 0 0
0.161377 -0.100953 0.031942 76 0 153
0.319825 -0.380020 -0.051929 255 0 0
0.119928 0.848046 -0.036511 255 0 0
-0.166391 -0.692941 -0.028355 153 0 76
-0.098902 -0.849325 -0.031627 153 0 76
-0.233623 0.139177 0.022936 153 0 76
-0.142753 -0.035554 0.028946 153 0 76
0.083114 0.002061 -0.040452 153 0 76
-0.123042 0.564322 0.045733 76 0 153
0.178702 0.639616 0.013748 153 0 76
0.321514 -0.331545 0.020212 255 0 0
-0.092620 0.145729 0.033403 76 0 153
-0.073342 -0.448947 0.043323 76 0 153
0.113517 -0.079689 -0.041926 153 0 76
-0.038633 0.153881 0.041640 76 0 153
0.233634 -0.184473 0.012805 153 0 76
-0.291337 0.879096 -0.022296 255 0 0
0.039649 0.239180 -0.038344 153 0 76
-0.073759 -0.263947 0.025601 153 0 76
0.371269 -0.301118 0.011056 255 0 0
-0.165501 0.081224 0.030049 153 0 76
0.020483 -0.437850 0.021031 153 0 76
0.022882 0.348811 0.027803 76 0 153
-0.339733 -0.590464 0.052273 255 0 0
0.011950 -0.865986 0.021445 153 0 76
-0.385447 -0.091731 -0.004071 255 0 0
0.133088 0.476116 -0.042875 153 0 76
0.141119 0.710322 0.015182 153 0 76
0.020228 0.081813 0.021044 153 0 76
0.206026 0.667601 -0.046411 153 0 76
0.070195 -0.464047 0.036363 76 0 153
0.352096 0.111195 -0.053494 255 0 0
0.087690 -0.475302 0.024661 76 0 153
-0.270074 0.446698 -0.023327 153 0 76
0.373643 -0.248039 0.000875 255 0 0
-0.164487 -0.741572 0.029999 153 0 76
0.063272 0.534496 -0.039490 153 0 76
-0.356146 -0.796292 -0.019154 255 0 0
-0.165968 -0.162182 0.036959 76 0 153
-0.087579 0.368703 0.044014 76 0 153
-0.009589 0.548355 0.040232 76 0 153
0.370361 0.135473 -0.054379 255 0 0
-0.204600 0.223008 -0.026502 153 0 76
0.313569 0.570846 0.011321 255 0 0
0.035606 0.662360 0.038041 76 0 153
0.006394 0.549133 -0.036732 153 0 76
0.015938 0.841543 -0.037194 153 0 76
0.022219 0.510939 0.027835 76 0 153
0.351687 0.173358 0.018749 255 0 0
0.156556 -0.033673 0.014434 153 0 76
0.309184 -0.431325 0.003663 153 0 76
0.032816 0.553720 0.038176 76 0 153
0.358355 0.457168 -0.053797 255 0 0
-0.232370 0.424206 0.035399 153 0 76
0.150356 0.217266 0.032477 76 0 153
0.204254 -0.425938 0.012121 153 0 76
0.354772 0.084901 -0.053624 255 0 0
-0.034516 -0.228392 -0.034749 153 0 76
0.121298 0.348182 0.023032 76 0 153
-0.207702 0.877743 -0.026351 255 0 0
-0.101464 -0.408980 -0.031503 153 0 76
0.104054 0.913744 -0.041467 255 0 0
-0.230517 -0.219822 -0.025245 153 0 76
0.275877 0.048486 0.008649 153 0 76
0.093282 -0.879757 -0.040945 153 0 76
-0.111142 0.372699 0.027413 153 0 76
0.001199 -0.753283 -0.036480 153 0 76
-0.274338 0.042785 0.016136 76 0 153
0.375896 0.613998 -0.027652 255 0 0
-0.020266 -0.335006 0.023007 153 0 76
0.296341 0.365047 -0.050790 153 0 76
0.298393 0.918507 -0.011000 255 0 0
-0.059582 0.290258 0.042656 76 0 153
0.095949 -0.123544 0.024260 76 0 153
0.289474 -0.794062 0.007990 153 0 76
0.084045 -0.424732 0.017950 153 0 76
0.221599 -0.479400 0.011280 153 0 76
0.375085 -0.175231 -0.009088 255 0 0
-0.267402 -0.068036 0.010152 76 0 153
-0.381806 0.711404 0.030248 255 0 0
0.177876 0.849119 0.001462 255 0 0
-0.061653 0.479781 0.025014 153 0 76
0.164932 0.116379 -0.044419 153 0 76
0.038365 0.489043 0.027053 76 0 153
-0.049398 -0.565930 -0.034027 153 0 76
0.235755 0.031241 -0.047853 153 0 76
0.372804 -0.415172 0.004681 255 0 0
-0.254806 0.458227 0.034378 153 0 76
-0.018376 -0.452478 0.040658 76 0 153
0.244566 0.483373 0.010167 153 0 76
-0.315489 -0.207604 0.035366 153 0 76
0.306287 0.354002 -0.022183 255 0 0
-0.225079 0.005217 0.074203 76 153 0
0.321095 0.524254 0.020233 255 0 0
0.055023 0.120871 -0.039090 153 0 76
-0.113615 0.180128 0.027533 153 0 76
-0.188931 -0.944069 -0.019465 153 0 76
-0.061886 -0.082511 0.042768 76 0 153
0.295920 -0.147003 -0.050770 153 0 76
-0.152913 -0.746811 -0.029008 153 0 76
-0.330168 -0.855655 -0.020413 255 0 0
0.095917 -0.528114 -0.041073 153 0 76
-0.026090 0.705816 0.023289 153 0 76
-0.315879 0.187472 0.022557 255 0 0
0.305676 0.756032 -0.039724 255 0 0
0.175104 -0.323591 0.013535 153 0 76
-0.228426 0.719116 0.034939 153 0 76
-0.325594 0.647070 -0.020635 255 0 0
0.103672 0.614098 0.016998 153 0 76
-0.317854 0.559833 0.036097 255 0 0
0.012674 -0.156444 0.028298 76 0 153
-0.133478 -0.369490 0.035384 76 0 153
0.259519 -0.347950 0.009442 153 0 76
0.315109 -0.732091 0.004976 204 51 127
-0.149686 0.225732 0.036170 76 0 153
-0.156491 -0.083294 0.036500 76 0 153
-0.105766 0.847293 -0.002722 255 0 0
0.234392 0.034086 0.010879 153 0 76
0.151319 -0.188667 -0.043759 153 0 76
-0.373402 0.053119 -0.018317 255 0 0
0.284299 0.410438 -0.050206 153 0 76
-0.355544 0.581743 -0.019183 255 0 0
-0.333452 -0.733236 -0.020254 255 0 0
0.211307 -0.415594 -0.046667 153 0 76
-0.234138 0.344511 0.033376 153 0 76
-0.289320 -0.460890 0.036052 153 0 76
-0.318559 -0.355599 0.039250 255 0 0
-0.203059 -0.705925 0.031870 153 0 76
0.010471 -0.370216 0.039259 76 0 153
0.257568 -0.699825 -0.048910 153 0 76
-0.073460 -0.589274 0.043328 76 0 153
0.129564 0.402501 0.033485 76 0 153
0.239324 0.902455 -0.048026 255 0 0
-0.359215 -0.807725 0.053218 255 0 0
-0.176195 -0.400342 0.048310 76 0 153
0.238150 -0.312284 0.010478 153 0 76
-0.043012 -0.392530 0.030998 76 0 153
0.263508 -0.880788 0.009248 153 0 76
-0.240651 -0.108269 0.028953 153 0 76
-0.202869 0.352099 -0.026586 153 0 76
-0.005208 -0.756577 0.011861 153 0 76
0.007224 -0.327852 0.039417 76 0 153
0.029714 -0.153739 -0.037863 153 0 76
0.305693 -0.425129 -0.032669 255 0 0
0.230961 -0.585918 0.012935 153 0 76
0.307552 0.154859 -0.030000 153 0 76
0.140601 -0.539330 0.022096 76 0 153
-0.386796 0.906658 0.054555 255 0 0
0.155998 0.108760 0.021349 76 0 153
-0.251894 0.282600 0.034237 153 0 76
-0.278011 0.425437 0.035504 153 0 76
0.037632 0.332306 0.027088 76 0 153
0.310807 0.040053 0.002566 255 0 0
-0.024077 0.512178 0.040935 76 0 153
-0.216043 0.629765 0.034607 153 0 76
0.246013 0.920116 -0.013052 255 0 0
0.222769 0.196449 -0.047223 153 0 76
0.250682 0.746998 0.009870 153 0 76
-0.090749 0.701204 -0.032022 153 0 76
-0.272447 0.010776 0.002009 153 0 76
0.297245 -0.153317 0.007613 153 0 76
-0.286672 -0.944069 -0.011553 153 0 76
-0.353280 -0.944768 -0.015688 255 0 0
-0.373354 -0.725170 0.053903 255 0 0
0.346690 -0.498418 -0.053232 255 0 0
-0.306535 -0.265486 0.036886 153 0 76
-0.119043 -0.874231 0.027796 153 0 76
-0.121707 -0.137154 0.034813 76 0 153
0.033418 0.134903 0.027292 76 0 153
-0.114071 -0.281345 0.045298 76 0 153
0.307649 0.818140 -0.027990 153 0 76
0.343535 -0.103953 -0.053079 255 0 0
0.191986 0.053707 0.012716 153 0 76
-0.166122 -0.372692 0.036967 76 0 153
0.057895 -0.040019 0.026106 76 0 153
-0.316768 0.833938 0.029743 255 0 0
-0.152841 0.351892 0.029435 153 0 76
-0.317135 0.068482 0.032124 255 0 0
-0.268078 -0.013106 0.018032 76 0 153
0.186712 0.836386 0.012972 153 0 76
0.375535 -0.393052 -0.036062 255 0 0
-0.179269 -0.234778 0.030716 153 0 76
-0.320731 -0.635365 0.047509 255 0 0
0.217750 0.070101 0.011467 153 0 76
-0.111063 -0.805333 -0.031037 153 0 76
0.018371 0.060308 -0.037313 153 0 76
0.228845 -0.544010 0.013037 153 0 76
0.317397 0.767991 0.020412 255 0 0
-0.001286 -0.610926 -0.036360 153 0 76
-0.323494 -0.466835 -0.020737 255 0 0
0.059419 -0.615100 0.019144 153 0 76
0.146052 -0.282539 -0.043503 153 0 76
0.310297 -0.512862 0.000565 255 0 0
0.226050 0.162744 0.011049 153 0 76
-0.321839 -0.465418 0.051242 255 0 0
-0.315577 0.602777 0.019105 255 0 0
0.337813 -0.378409 -0.052801 255 0 0
-0.198135 0.763220 0.031631 153 0 76
-0.003759 -0.185126 0.039949 76 0 153
-0.175173 -0.020109 0.030518 153 0 76
-0.300618 -0.401391 -0.021846 153 0 76
0.260208 0.656956 0.009408 153 0 76
0.132334 0.467075 0.033351 76 0 153
-0.273936 0.733827 0.035306 153 0 76
0.300107 0.848959 -0.027684 153 0 76
0.008921 0.319166 0.028480 76 0 153
0.375815 -0.033374 -0.019534 255 0 0
0.004484 -0.283242 0.039550 76 0 153
-0.334737 -0.241967 0.052031 255 0 0
-0.317991 0.588295 -0.016250 153 0 76
0.345759 -0.002308 0.019036 255 0 0
0.012143 0.131945 0.028324 76 0 153
-0.206912 -0.466998 0.032056 153 0 76
-0.383079 -0.696621 0.023871 255 0 0
-0.313674 0.658257 0.037233 153 0 76
-0.256643 0.433742 -0.023979 153 0 76
0.303091 0.348585 0.007329 153 0 76
-0.226188 0.817848 -0.025455 153 0 76
0.221902 0.393995 -0.047181 153 0 76
-0.059630 0.123379 0.031804 76 0 153
-0.252035 0.362737 -0.024202 153 0 76
-0.147145 -0.636824 0.046901 76 0 153
0.336531 -0.374308 0.019484 255 0 0
0.215802 0.476135 0.011561 153 0 76
0.230087 0.264355 0.012977 153 0 76
-0.332657 0.770593 -0.020293 255 0 0
0.103348 -0.353252 -0.041433 153 0 76
-0.285008 -0.909536 0.035843 153 0 76
