0.704985 0.323620 -0.310333 1.000000 0.000000 0.000000
-0.629972 -0.067194 -0.416821 0.600000 0.000000 0.300000
-0.672787 -0.415891 -0.512048 1.000000 0.000000 0.000000
-0.385168 0.342988 -0.432915 1.000000 0.000000 0.000000
-0.205658 -0.360724 -0.445757 0.600000 0.000000 0.300000
-0.183987 0.342988 0.057178 1.000000 0.000000 0.000000
-0.312412 0.323620 0.016101 1.000000 0.000000 0.000000
-0.027676 0.292384 0.073798 0.600000 0.000000 0.300000
-0.590601 -0.342759 -0.416821 0.600000 0.000000 0.300000
-0.242407 -0.360724 -0.203702 0.600000 0.000000 0.300000
-0.613860 -0.360724 -0.264729 0.600000 0.000000 0.300000
-0.657823 -0.489846 -0.437761 0.600000 0.300000 0.000000
0.332878 0.280049 0.520925 0.500000 0.000000 0.500000
-0.271444 -0.470478 -0.515398 0.000000 1.000000 0.000000
-0.020668 -0.380093 0.393822 0.600000 0.000000 0.300000
-0.136280 -0.380093 -0.502253 0.600000 0.000000 0.300000
-0.279336 -0.403607 -0.550784 0.000000 1.000000 0.000000
0.643756 -0.435063 -0.139197 0.800000 0.200000 0.500000
-0.499394 0.323620 0.136552 1.000000 0.000000 0.000000
-0.267432 0.238514 -0.034298 0.300000 0.600000 0.000000
0.220840 -0.360724 0.414365 0.600000 0.000000 0.300000
-0.461794 -0.380093 0.074559 0.600000 0.000000 0.300000
0.682492 -0.428707 0.236914 0.800000 0.200000 0.500000
0.694734 0.342988 -0.103300 1.000000 0.000000 0.000000
0.298436 -0.380093 0.466452 0.600000 0.000000 0.300000
-0.762176 0.323620 0.061033 1.000000 0.000000 0.000000
-0.009224 0.323620 0.014757 1.000000 0.000000 0.000000
-0.631428 0.323620 -0.558344 1.000000 0.000000 0.000000
-0.369949 -0.380093 -0.241188 0.600000 0.000000 0.300000
0.706794 0.323620 -0.171946 1.000000 0.000000 0.000000
-0.574421 -0.360724 0.293265 0.600000 0.000000 0.300000
-0.408123 0.323620 0.265757 1.000000 0.000000 0.000000
-0.445635 0.342988 -0.074745 1.000000 0.000000 0.000000
-0.257542 0.342988 0.235017 1.000000 0.000000 0.000000
-0.176217 0.278777 0.520925 0.500000 0.000000 0.500000
-0.186817 -0.380093 -0.100689 0.600000 0.000000 0.300000
0.394676 -0.380093 -0.030189 0.600000 0.000000 0.300000
-0.574236 -0.314678 -0.512048 0.600000 0.000000 0.300000
-0.341088 -0.380093 0.095239 0.600000 0.000000 0.300000
-0.037580 0.342988 -0.362808 1.000000 0.000000 0.000000
-0.093094 0.323620 -0.194208 1.000000 0.000000 0.000000
-0.058446 0.250646 0.482188 0.500000 0.000000 0.500000
-0.625429 -0.507231 -0.452494 0.600000 0.300000 0.000000
-0.242721 0.342988 -0.373941 1.000000 0.000000 0.000000
-0.027676 -0.412172 -0.456810 0.600000 0.000000 0.300000
-0.302481 -0.360724 -0.531498 0.600000 0.000000 0.300000
-0.565145 -0.294222 -0.434668 0.600000 0.000000 0.300000
0.119556 0.213867 0.505807 0.500000 0.000000 0.500000
0.538139 -0.360724 0.264256 0.600000 0.000000 0.300000
-0.273438 0.299716 -0.550784 0.300000 0.000000 0.600000
0.518996 0.304252 0.214836 1.000000 0.000000 0.000000
-0.587885 -0.293090 0.386961 0.300000 0.000000 0.600000
-0.020824 0.342988 -0.514352 1.000000 0.000000 0.000000
-0.217688 0.315343 0.585485 1.000000 0.000000 0.000000
-0.551744 0.323620 -0.515966 1.000000 0.000000 0.000000
0.605821 0.304252 0.581688 1.000000 0.000000 0.000000
-0.660372 0.300634 0.469556 0.000000 0.500000 0.500000
-0.005574 0.304252 -0.131294 0.600000 0.000000 0.300000
-0.370215 0.342988 -0.377225 1.000000 0.000000 0.000000
0.682492 -0.471631 0.430449 0.600000 0.000000 0.300000
-0.669653 -0.380093 0.260069 0.600000 0.000000 0.300000
0.137254 -0.398586 -0.550784 0.000000 1.000000 0.000000
0.237582 -0.443067 0.482188 0.000000 0.000000 1.000000
0.172608 -0.380093 0.498277 0.600000 0.000000 0.300000
-0.563314 -0.360724 0.434727 0.600000 0.000000 0.300000
-0.369383 0.304252 -0.494578 1.000000 0.000000 0.000000
0.058018 -0.360724 0.301787 0.600000 0.000000 0.300000
0.072171 -0.380093 0.089955 0.600000 0.000000 0.300000
-0.746282 0.342988 0.046405 1.000000 0.000000 0.000000
0.301706 0.304252 -0.061035 1.000000 0.000000 0.000000
0.250347 0.342988 -0.550122 1.000000 0.000000 0.000000
-0.062754 -0.360724 0.212604 0.600000 0.000000 0.300000
0.455685 0.342988 0.095034 1.000000 0.000000 0.000000
0.262704 0.252113 -0.034298 0.300000 0.600000 0.000000
0.226641 0.304252 0.542764 1.000000 0.000000 0.000000
0.517167 0.342988 0.208054 1.000000 0.000000 0.000000
-0.531971 -0.360724 -0.432276 0.600000 0.000000 0.300000
0.597138 0.304252 0.015330 1.000000 0.000000 0.000000
-0.529121 0.342988 0.066768 1.000000 0.000000 0.000000
-0.171961 -0.360724 -0.256240 0.600000 0.000000 0.300000
0.439999 -0.380093 -0.501899 0.600000 0.000000 0.300000
0.643756 -0.220268 -0.485079 0.300000 0.000000 0.600000
-0.699109 -0.445425 -0.241294 1.000000 0.000000 0.000000
-0.070490 0.290398 -0.034298 0.300000 0.600000 0.000000
-0.236143 -0.380093 -0.250363 0.600000 0.000000 0.300000
-0.302958 0.334048 -0.615345 1.000000 0.000000 0.000000
-0.023405 0.342988 0.535108 1.000000 0.000000 0.000000
0.084098 -0.360724 -0.190761 0.600000 0.000000 0.300000
-0.699109 -0.485290 0.361652 0.300000 0.000000 0.600000
-0.004492 0.213867 0.519590 0.500000 0.000000 0.500000
-0.443583 0.323620 0.351759 1.000000 0.000000 0.000000
0.046033 -0.360724 0.032137 0.600000 0.000000 0.300000
0.222987 -0.360724 0.314296 0.600000 0.000000 0.300000
-0.699109 0.213877 0.130630 0.000000 0.500000 0.500000
0.496571 -0.360724 -0.302257 0.600000 0.000000 0.300000
-0.605455 0.323620 0.528342 1.000000 0.000000 0.000000
0.570570 0.342988 0.439826 1.000000 0.000000 0.000000
0.375318 0.304252 0.096584 1.000000 0.000000 0.000000
0.111412 -0.380093 0.496474 0.600000 0.000000 0.300000
-0.027791 0.323620 0.046490 1.000000 0.000000 0.000000
-0.162666 0.304252 0.056711 1.000000 0.000000 0.000000
0.643756 -0.404335 0.275575 0.800000 0.200000 0.500000
0.657808 -0.360724 0.090416 0.600000 0.000000 0.300000
-0.699109 -0.390087 -0.322551 1.000000 0.000000 0.000000
-0.347909 0.304252 0.265011 1.000000 0.000000 0.000000
-0.565145 0.164853 0.473090 0.300000 0.000000 0.600000
-0.594352 0.304252 -0.472953 1.000000 0.000000 0.000000
-0.060297 0.342988 0.013555 1.000000 0.000000 0.000000
0.260110 0.323620 0.030330 1.000000 0.000000 0.000000
0.167002 -0.367880 -0.550784 0.600000 0.000000 0.300000
-0.634642 -0.460305 -0.416821 0.600000 0.000000 0.300000
0.185600 -0.380093 -0.348261 0.600000 0.000000 0.300000
0.512118 -0.360724 -0.408320 0.600000 0.000000 0.300000
-0.624963 -0.409017 0.482188 0.300000 0.000000 0.600000
0.577587 0.014093 -0.416821 0.300000 0.000000 0.600000
-0.136773 -0.380093 0.043954 0.600000 0.000000 0.300000
-0.569768 0.342988 0.064006 1.000000 0.000000 0.000000
-0.327949 0.323620 -0.607327 1.000000 0.000000 0.000000
-0.242646 0.323620 0.362144 1.000000 0.000000 0.000000
-0.599498 0.127503 0.386961 0.300000 0.000000 0.600000
-0.554931 -0.360724 -0.178922 0.600000 0.000000 0.300000
-0.492174 0.254667 0.004438 0.300000 0.600000 0.000000
-0.602237 0.323620 0.232090 1.000000 0.000000 0.000000
0.482751 -0.360724 0.177392 0.600000 0.000000 0.300000
0.382666 -0.463908 -0.512048 0.000000 1.000000 0.000000
0.474868 -0.380093 -0.241026 0.600000 0.000000 0.300000
0.290353 0.323620 -0.259933 1.000000 0.000000 0.000000
0.264783 0.342988 0.176628 1.000000 0.000000 0.000000
-0.753804 0.304252 0.469653 1.000000 0.000000 0.000000
-0.305226 0.304252 -0.077191 1.000000 0.000000 0.000000
-0.010004 0.323620 -0.331342 1.000000 0.000000 0.000000
0.745705 0.323620 -0.024673 1.000000 0.000000 0.000000
-0.510828 0.304252 0.428700 1.000000 0.000000 0.000000
-0.623866 0.323620 -0.203327 1.000000 0.000000 0.000000
0.241480 0.304252 0.500008 0.500000 0.000000 0.500000
-0.658519 0.023955 -0.512048 0.600000 0.000000 0.300000
0.633089 -0.185944 -0.512048 0.300000 0.000000 0.600000
0.061148 0.342988 -0.603249 1.000000 0.000000 0.000000
-0.686239 0.323620 0.547781 1.000000 0.000000 0.000000
-0.168779 0.323620 0.164340 1.000000 0.000000 0.000000
0.027139 0.323620 -0.228533 1.000000 0.000000 0.000000
-0.121610 0.323620 -0.022551 1.000000 0.000000 0.000000
0.332065 -0.360724 -0.269961 0.600000 0.000000 0.300000
-0.645226 -0.387938 -0.512048 0.000000 1.000000 0.000000
-0.263665 0.304252 -0.606338 1.000000 0.000000 0.000000
0.221907 0.342988 -0.589889 1.000000 0.000000 0.000000
-0.669101 0.323620 -0.019380 1.000000 0.000000 0.000000
0.303543 -0.360724 -0.232983 0.600000 0.000000 0.300000
0.710013 0.304252 0.567167 1.000000 0.000000 0.000000
-0.551596 0.304252 -0.199079 1.000000 0.000000 0.000000
0.702143 0.304252 0.081083 1.000000 0.000000 0.000000
0.248529 -0.423048 0.520925 0.000000 0.000000 1.000000
0.457058 0.342988 -0.424661 1.000000 0.000000 0.000000
0.281311 -0.380093 -0.452709 0.600000 0.000000 0.300000
-0.075624 -0.360724 0.459991 0.600000 0.000000 0.300000
-0.551920 -0.523160 -0.485217 0.300000 0.000000 0.600000
-0.576919 0.304252 -0.074031 1.000000 0.000000 0.000000
-0.044367 -0.360724 -0.441912 0.600000 0.000000 0.300000
0.083954 -0.380093 0.448396 0.600000 0.000000 0.300000
0.136868 0.323620 0.021534 1.000000 0.000000 0.000000
0.011060 -0.432055 -0.486969 0.600000 0.000000 0.300000
0.543157 -0.360724 -0.544413 0.600000 0.000000 0.300000
0.319316 0.342988 -0.076501 1.000000 0.000000 0.000000
0.590949 0.342988 -0.001305 1.000000 0.000000 0.000000
0.662039 -0.360724 -0.216909 0.600000 0.000000 0.300000
0.520303 0.323620 -0.230622 1.000000 0.000000 0.000000
0.156016 -0.380093 -0.080443 0.600000 0.000000 0.300000
-0.464817 0.323620 -0.410033 1.000000 0.000000 0.000000
0.567174 -0.380093 -0.000549 0.600000 0.000000 0.300000
-0.352262 -0.380093 0.383563 0.600000 0.000000 0.300000
0.049852 0.342988 0.362254 1.000000 0.000000 0.000000
0.118415 0.304252 -0.153969 1.000000 0.000000 0.000000
0.071219 0.304252 -0.574496 1.000000 0.000000 0.000000
0.474717 -0.380093 -0.344798 0.600000 0.000000 0.300000
0.680403 -0.380093 -0.098129 0.800000 0.200000 0.500000
-0.248622 -0.369270 -0.550784 0.600000 0.000000 0.300000
0.285284 -0.360724 -0.209056 0.600000 0.000000 0.300000
0.388611 0.342988 -0.322118 1.000000 0.000000 0.000000
0.238420 -0.380093 -0.496719 0.600000 0.000000 0.300000
-0.131809 -0.360724 -0.475909 0.600000 0.000000 0.300000
-0.223022 0.323620 -0.103368 1.000000 0.000000 0.000000
0.643756 0.250171 0.412106 0.500000 0.500000 0.000000
-0.573127 0.323620 -0.438014 1.000000 0.000000 0.000000
0.730287 0.342988 -0.080219 1.000000 0.000000 0.000000
-0.278885 -0.360724 0.497280 0.600000 0.000000 0.300000
0.558513 -0.235738 -0.416821 0.300000 0.000000 0.600000
-0.590343 0.323620 0.129917 1.000000 0.000000 0.000000
-0.739208 0.304252 0.227182 1.000000 0.000000 0.000000
0.682492 0.264468 -0.003139 0.500000 0.500000 0.000000
-0.050560 0.323620 -0.145061 1.000000 0.000000 0.000000
0.602122 0.342988 0.166337 1.000000 0.000000 0.000000
-0.699109 0.270912 0.031964 0.000000 0.500000 0.500000
0.344648 0.304252 0.111158 1.000000 0.000000 0.000000
0.380893 -0.380093 -0.279317 0.600000 0.000000 0.300000
-0.674145 0.323620 -0.452932 1.000000 0.000000 0.000000
0.661955 -0.380093 -0.471869 0.600000 0.000000 0.300000
0.612504 0.323620 -0.286356 1.000000 0.000000 0.000000
-0.074384 -0.380093 0.255704 0.600000 0.000000 0.300000
0.652565 0.304252 0.043632 1.000000 0.000000 0.000000
-0.715286 0.323620 -0.181273 1.000000 0.000000 0.000000
-0.503128 -0.360724 -0.083589 0.600000 0.000000 0.300000
-0.718761 0.323620 0.189684 1.000000 0.000000 0.000000
0.214430 0.342988 0.092230 1.000000 0.000000 0.000000
0.592948 0.304252 -0.590876 1.000000 0.000000 0.000000
-0.571904 0.277963 0.386961 0.300000 0.000000 0.600000
-0.554333 0.323620 0.454658 1.000000 0.000000 0.000000
0.697792 0.304252 0.248563 1.000000 0.000000 0.000000
-0.531744 0.342988 0.311204 1.000000 0.000000 0.000000
0.598892 -0.380093 -0.221559 0.600000 0.000000 0.300000
0.453128 -0.380093 -0.546612 0.600000 0.000000 0.300000
-0.418895 0.342988 0.215143 1.000000 0.000000 0.000000
0.341778 -0.360724 -0.356429 0.600000 0.000000 0.300000
-0.553403 -0.380093 -0.145790 0.600000 0.000000 0.300000
-0.255147 0.333156 0.585485 1.000000 0.000000 0.000000
-0.250182 0.323620 0.263316 1.000000 0.000000 0.000000
-0.177946 -0.360724 0.399779 0.600000 0.000000 0.300000
0.299673 0.304252 0.497498 0.500000 0.000000 0.500000
-0.660372 0.260447 -0.068856 0.000000 0.500000 0.500000
-0.005968 0.342988 0.095480 1.000000 0.000000 0.000000
-0.609810 -0.470478 0.379637 0.300000 0.000000 0.600000
-0.687299 0.323620 -0.321876 1.000000 0.000000 0.000000
-0.699109 -0.361759 0.117945 0.600000 0.000000 0.300000
0.353869 0.323620 0.349614 1.000000 0.000000 0.000000
0.041676 0.323620 -0.265593 1.000000 0.000000 0.000000
0.548528 -0.039681 0.456736 0.600000 0.300000 0.000000
0.567093 -0.024378 -0.512048 0.300000 0.000000 0.600000
-0.050657 0.342988 -0.203188 1.000000 0.000000 0.000000
0.008218 0.342988 -0.533911 1.000000 0.000000 0.000000
0.689824 0.323620 -0.053029 1.000000 0.000000 0.000000
-0.660372 -0.435490 0.033610 1.000000 0.000000 0.000000
0.643756 0.280950 0.451942 0.500000 0.500000 0.000000
0.747053 0.319313 0.009362 1.000000 0.000000 0.000000
0.489854 0.304252 -0.186876 1.000000 0.000000 0.000000
0.304571 0.323620 0.451642 1.000000 0.000000 0.000000
0.156175 0.323620 -0.446115 1.000000 0.000000 0.000000
0.615148 -0.043076 -0.416821 0.300000 0.000000 0.600000
0.245619 0.323620 -0.380768 1.000000 0.000000 0.000000
0.510601 0.304252 -0.064004 1.000000 0.000000 0.000000
-0.467716 0.342988 0.266309 1.000000 0.000000 0.000000
0.564874 0.275042 -0.416821 0.300000 0.000000 0.600000
0.330254 0.304252 -0.372556 1.000000 0.000000 0.000000
-0.712829 0.323620 0.216585 1.000000 0.000000 0.000000
0.124708 0.323620 -0.004947 1.000000 0.000000 0.000000
0.280298 0.317287 0.585485 1.000000 0.000000 0.000000
0.498637 0.304252 -0.406885 1.000000 0.000000 0.000000
-0.565145 -0.183785 -0.431104 0.600000 0.000000 0.300000
-0.346230 -0.380093 0.241210 0.600000 0.000000 0.300000
-0.375205 0.323620 -0.211111 1.000000 0.000000 0.000000
0.614633 -0.488031 0.317628 0.600000 0.000000 0.300000
-0.553913 0.323620 -0.297901 1.000000 0.000000 0.000000
-0.059160 -0.461662 -0.550784 0.000000 1.000000 0.000000
-0.645363 0.323620 -0.418914 1.000000 0.000000 0.000000
0.205535 0.213867 -0.523887 0.300000 0.000000 0.600000
0.497133 -0.380093 -0.139835 0.600000 0.000000 0.300000
0.621930 0.323620 -0.535190 1.000000 0.000000 0.000000
-0.342856 0.323620 0.364232 1.000000 0.000000 0.000000
-0.763669 0.324198 0.567126 1.000000 0.000000 0.000000
-0.684915 -0.380093 -0.045708 0.600000 0.000000 0.300000
-0.660372 0.044618 -0.432260 0.600000 0.000000 0.300000
-0.254379 0.304252 0.239510 1.000000 0.000000 0.000000
0.620859 -0.413275 0.482188 0.600000 0.300000 0.000000
0.532788 -0.489846 0.402601 0.600000 0.000000 0.300000
0.440904 0.342988 -0.513053 1.000000 0.000000 0.000000
0.309940 0.323620 -0.373361 1.000000 0.000000 0.000000
0.260813 -0.360724 -0.110798 0.600000 0.000000 0.300000
-0.528419 0.323620 -0.593360 1.000000 0.000000 0.000000
-0.324780 0.304252 -0.188938 1.000000 0.000000 0.000000
-0.455470 -0.360724 0.264186 0.600000 0.000000 0.300000
0.543376 -0.421744 -0.512048 0.000000 1.000000 0.000000
-0.057975 0.323620 0.510428 1.000000 0.000000 0.000000
-0.612179 -0.489846 0.467496 0.300000 0.000000 0.600000
-0.355475 -0.360724 -0.342956 0.600000 0.000000 0.300000
-0.314713 0.242203 0.004438 0.300000 0.600000 0.000000
-0.697740 0.213867 -0.031598 0.000000 0.500000 0.500000
-0.602402 -0.360724 -0.314610 0.600000 0.000000 0.300000
0.514606 0.304252 0.162280 1.000000 0.000000 0.000000
-0.303389 0.323620 0.236276 1.000000 0.000000 0.000000
0.516955 0.304252 -0.525640 0.300000 0.000000 0.600000
0.043514 0.323620 0.027969 1.000000 0.000000 0.000000
0.671845 0.213867 -0.522548 0.300000 0.000000 0.600000
-0.124157 -0.360724 0.342533 0.600000 0.000000 0.300000
0.253702 0.304252 -0.047706 1.000000 0.000000 0.000000
-0.015382 0.323620 -0.085450 1.000000 0.000000 0.000000
-0.626006 0.077913 -0.512048 0.600000 0.000000 0.300000
0.423218 0.342988 -0.364726 1.000000 0.000000 0.000000
-0.603227 0.304252 0.440222 1.000000 0.000000 0.000000
0.682492 -0.405552 -0.014810 0.800000 0.200000 0.500000
-0.069104 0.328571 -0.615345 1.000000 0.000000 0.000000
0.643756 -0.402935 -0.237560 0.800000 0.200000 0.500000
-0.458472 0.323620 0.284721 1.000000 0.000000 0.000000
-0.466777 -0.360724 0.130453 0.600000 0.000000 0.300000
0.548528 0.065734 0.430098 0.600000 0.300000 0.000000
0.179364 -0.458111 -0.512048 0.000000 1.000000 0.000000
-0.403818 0.342988 0.149218 1.000000 0.000000 0.000000
-0.096089 -0.360724 -0.321341 0.600000 0.000000 0.300000
0.608143 0.304252 0.204995 1.000000 0.000000 0.000000
0.662091 -0.470478 0.288168 0.600000 0.000000 0.300000
-0.677003 0.323620 0.447248 1.000000 0.000000 0.000000
0.594598 -0.470478 0.465331 0.600000 0.300000 0.000000
0.581791 0.304252 -0.450322 0.300000 0.000000 0.600000
-0.548886 0.271915 0.520925 0.500000 0.000000 0.500000
-0.680063 -0.409907 0.482188 0.000000 0.000000 1.000000
-0.338918 -0.470478 0.499268 0.000000 0.000000 1.000000
-0.699109 0.228935 0.057856 0.000000 0.500000 0.500000
0.064659 0.323620 -0.306030 1.000000 0.000000 0.000000
0.472441 -0.360724 -0.081087 0.600000 0.000000 0.300000
-0.590076 0.180070 0.482188 0.300000 0.000000 0.600000
-0.582978 -0.470478 -0.482440 0.600000 0.000000 0.300000
-0.671259 0.342988 0.519077 1.000000 0.000000 0.000000
0.570785 0.263959 0.520925 0.500000 0.000000 0.500000
0.570340 -0.182982 -0.512048 0.300000 0.000000 0.600000
-0.660372 -0.445745 0.252856 1.000000 0.000000 0.000000
0.436545 -0.360724 -0.264823 0.600000 0.000000 0.300000
-0.027676 -0.395618 -0.053476 0.600000 0.000000 0.300000
0.501340 0.342988 -0.308801 1.000000 0.000000 0.000000
0.231948 -0.360724 0.101212 0.600000 0.000000 0.300000
0.438178 0.342988 0.561912 1.000000 0.000000 0.000000
-0.761568 0.323620 -0.187616 1.000000 0.000000 0.000000
0.576070 -0.380093 -0.444651 0.600000 0.000000 0.300000
-0.296466 0.342988 0.408341 1.000000 0.000000 0.000000
0.502404 0.304252 0.417952 1.000000 0.000000 0.000000
-0.365756 0.323620 -0.112543 1.000000 0.000000 0.000000
0.643756 -0.320061 -0.500749 0.300000 0.000000 0.600000
0.630159 -0.360724 0.022208 0.600000 0.000000 0.300000
-0.207968 -0.380093 -0.057553 0.600000 0.000000 0.300000
-0.267362 0.323620 -0.139190 1.000000 0.000000 0.000000
0.278366 -0.470478 0.508960 0.000000 0.000000 1.000000
0.378443 0.342988 -0.009642 1.000000 0.000000 0.000000
-0.515357 -0.360724 -0.514108 0.600000 0.000000 0.300000
0.046712 0.304252 -0.056418 1.000000 0.000000 0.000000
-0.049067 0.342988 0.188616 1.000000 0.000000 0.000000
-0.166212 0.323620 0.426276 1.000000 0.000000 0.000000
-0.322297 -0.360724 -0.209110 0.600000 0.000000 0.300000
-0.697492 -0.470478 0.417983 0.300000 0.000000 0.600000
0.085591 0.323620 0.390383 1.000000 0.000000 0.000000
0.548528 -0.298345 -0.493191 0.300000 0.000000 0.600000
0.262804 0.213867 -0.008820 0.300000 0.600000 0.000000
-0.125443 -0.380093 0.457894 0.600000 0.000000 0.300000
0.162061 0.263344 0.004438 0.300000 0.600000 0.000000
-0.377858 0.307112 -0.615345 1.000000 0.000000 0.000000
0.103833 0.304252 0.370981 1.000000 0.000000 0.000000
0.187026 0.304252 0.294135 1.000000 0.000000 0.000000
-0.570200 0.323620 0.336919 1.000000 0.000000 0.000000
0.435313 0.323620 -0.093087 1.000000 0.000000 0.000000
0.701100 0.323620 -0.551868 1.000000 0.000000 0.000000
-0.445075 -0.380093 -0.032381 0.600000 0.000000 0.300000
0.169131 0.323620 -0.065923 1.000000 0.000000 0.000000
0.072172 -0.470478 -0.525517 0.000000 1.000000 0.000000
0.633614 0.277526 0.482188 0.500000 0.000000 0.500000
0.011060 -0.429494 0.475707 0.600000 0.000000 0.300000
-0.120302 -0.368499 -0.550784 0.600000 0.000000 0.300000
-0.121345 -0.360724 -0.285735 0.600000 0.000000 0.300000
-0.595348 -0.444588 0.482188 0.000000 0.000000 1.000000
-0.399640 0.323620 -0.578490 1.000000 0.000000 0.000000
-0.055463 0.216652 0.520925 0.500000 0.000000 0.500000
-0.002658 -0.470478 0.300622 0.600000 0.000000 0.300000
0.259536 0.304252 -0.505036 1.000000 0.000000 0.000000
0.101342 0.276616 -0.034298 0.300000 0.600000 0.000000
-0.199761 0.323620 0.213590 1.000000 0.000000 0.000000
-0.011834 -0.380093 0.029718 0.600000 0.000000 0.300000
0.074350 0.342988 -0.537714 1.000000 0.000000 0.000000
0.668784 -0.360724 0.191787 0.600000 0.000000 0.300000
-0.000538 0.323620 -0.244089 1.000000 0.000000 0.000000
-0.231690 -0.360724 -0.330133 0.600000 0.000000 0.300000
0.623379 0.342988 -0.153956 1.000000 0.000000 0.000000
0.378745 0.342988 -0.216993 1.000000 0.000000 0.000000
-0.025793 -0.360724 -0.222576 0.600000 0.000000 0.300000
0.607456 0.009077 -0.512048 0.300000 0.000000 0.600000
0.373599 0.323620 -0.270878 1.000000 0.000000 0.000000
-0.262690 0.304252 0.195897 1.000000 0.000000 0.000000
0.472626 0.323620 -0.308008 1.000000 0.000000 0.000000
0.361883 -0.450455 0.520925 0.000000 0.000000 1.000000
-0.699109 0.240506 -0.286943 0.000000 0.500000 0.500000
-0.251979 0.323620 -0.181742 1.000000 0.000000 0.000000
-0.061013 -0.360724 -0.118247 0.600000 0.000000 0.300000
0.297209 0.323620 0.545244 1.000000 0.000000 0.000000
-0.660372 0.079854 -0.453903 0.600000 0.000000 0.300000
0.406349 -0.380093 -0.541754 0.000000 1.000000 0.000000
0.311283 -0.438917 0.520925 0.000000 0.000000 1.000000
0.427248 0.323620 -0.495204 1.000000 0.000000 0.000000
-0.110415 -0.360724 0.279410 0.600000 0.000000 0.300000
0.392762 -0.360724 -0.418922 0.600000 0.000000 0.300000
-0.355261 0.323620 0.312405 1.000000 0.000000 0.000000
0.004516 0.213867 -0.229087 0.600000 0.000000 0.300000
0.619029 0.061791 -0.512048 0.300000 0.000000 0.600000
-0.575245 0.342988 -0.028504 1.000000 0.000000 0.000000
-0.660372 0.161538 0.455677 0.300000 0.000000 0.600000
0.174899 -0.380093 -0.141047 0.600000 0.000000 0.300000
0.201591 -0.380093 -0.270121 0.600000 0.000000 0.300000
0.581444 0.104688 0.386961 0.600000 0.300000 0.000000
-0.073506 0.213867 0.497446 0.500000 0.000000 0.500000
-0.256042 0.342988 0.546801 1.000000 0.000000 0.000000
-0.026063 -0.470478 -0.079715 0.600000 0.000000 0.300000
0.643756 -0.461317 -0.144153 0.800000 0.200000 0.500000
0.257408 -0.360724 0.479837 0.600000 0.000000 0.300000
0.243970 -0.360724 0.347609 0.600000 0.000000 0.300000
0.682492 -0.444137 -0.538213 0.000000 1.000000 0.000000
-0.526458 0.342988 -0.479236 1.000000 0.000000 0.000000
-0.641645 -0.332852 -0.416821 0.600000 0.000000 0.300000
0.172901 0.342988 -0.041478 1.000000 0.000000 0.000000
0.687725 0.342988 0.287341 1.000000 0.000000 0.000000
-0.349397 -0.380093 0.288734 0.600000 0.000000 0.300000
0.192215 -0.380093 0.353104 0.600000 0.000000 0.300000
-0.699109 0.217838 -0.492644 0.000000 0.500000 0.500000
-0.610571 0.075642 -0.416821 0.600000 0.000000 0.300000
0.467620 0.304252 0.540016 1.000000 0.000000 0.000000
-0.351341 -0.360724 -0.230719 0.600000 0.000000 0.300000
0.523090 -0.380093 -0.227035 0.600000 0.000000 0.300000
-0.299983 0.342988 -0.300875 1.000000 0.000000 0.000000
-0.621831 -0.380093 0.188655 0.600000 0.000000 0.300000
0.500848 0.342988 -0.521865 1.000000 0.000000 0.000000
-0.759565 0.342988 -0.464182 1.000000 0.000000 0.000000
-0.681551 -0.470478 0.053839 1.000000 0.000000 0.000000
-0.241800 0.323620 -0.428223 1.000000 0.000000 0.000000
-0.341147 -0.360724 0.359134 0.600000 0.000000 0.300000
-0.069998 0.323620 -0.034264 1.000000 0.000000 0.000000
-0.730511 0.304252 -0.531958 1.000000 0.000000 0.000000
-0.562672 -0.470478 0.495699 0.000000 0.000000 1.000000
-0.660372 -0.408264 -0.215318 1.000000 0.000000 0.000000
-0.111801 -0.360724 -0.247350 0.600000 0.000000 0.300000
0.343601 0.304252 -0.539031 0.300000 0.000000 0.600000
0.111018 0.304252 -0.576659 1.000000 0.000000 0.000000
-0.592061 -0.224733 -0.512048 0.600000 0.000000 0.300000
-0.571070 -0.360724 0.211091 0.600000 0.000000 0.300000
-0.629293 0.304252 -0.445774 1.000000 0.000000 0.000000
-0.763669 0.341133 -0.361278 1.000000 0.000000 0.000000
-0.636235 -0.159754 0.386961 0.300000 0.000000 0.600000
-0.660372 0.286493 0.223137 0.000000 0.500000 0.500000
-0.024113 -0.360724 0.152336 0.600000 0.000000 0.300000
-0.634630 0.323620 0.168167 1.000000 0.000000 0.000000
-0.660372 0.262898 -0.419124 0.000000 0.500000 0.500000
0.356615 0.323620 0.321121 1.000000 0.000000 0.000000
-0.046389 0.323620 0.563150 1.000000 0.000000 0.000000
-0.699109 -0.388624 -0.161023 1.000000 0.000000 0.000000
-0.330648 0.323620 0.258989 1.000000 0.000000 0.000000
0.654575 -0.360724 0.296680 0.600000 0.000000 0.300000
0.672403 0.304252 0.111532 0.500000 0.500000 0.000000
0.147018 -0.360724 -0.503472 0.600000 0.000000 0.300000
0.247744 0.323620 0.129846 1.000000 0.000000 0.000000
-0.575460 0.300185 -0.034298 0.300000 0.600000 0.000000
0.011060 -0.381163 -0.023458 0.600000 0.000000 0.300000
-0.485563 -0.360724 -0.028793 0.600000 0.000000 0.300000
0.656311 0.213867 0.382166 0.500000 0.500000 0.000000
0.245901 0.342988 -0.173909 1.000000 0.000000 0.000000
-0.362768 0.240181 -0.034298 0.300000 0.600000 0.000000
0.503856 0.342988 -0.263190 1.000000 0.000000 0.000000
-0.313897 0.323620 0.152956 1.000000 0.000000 0.000000
0.683509 0.323620 -0.412993 1.000000 0.000000 0.000000
0.178112 0.304252 0.383856 1.000000 0.000000 0.000000
-0.473826 -0.380093 -0.275094 0.600000 0.000000 0.300000
-0.233420 -0.445753 -0.512048 0.000000 1.000000 0.000000
-0.408338 -0.380093 0.321967 0.600000 0.000000 0.300000
0.056142 0.323620 -0.464440 1.000000 0.000000 0.000000
-0.572600 0.323620 0.227469 1.000000 0.000000 0.000000
-0.483020 0.342988 -0.281253 1.000000 0.000000 0.000000
-0.252840 0.323620 0.475637 1.000000 0.000000 0.000000
-0.329981 0.304252 -0.538816 1.000000 0.000000 0.000000
0.558168 -0.360724 -0.454678 0.600000 0.000000 0.300000
0.619946 0.285113 -0.512048 0.300000 0.000000 0.600000
0.615288 0.304252 0.539934 1.000000 0.000000 0.000000
-0.577500 -0.380093 -0.123232 0.600000 0.000000 0.300000
-0.134126 0.217444 -0.550784 0.300000 0.000000 0.600000
0.067993 0.342988 -0.151295 1.000000 0.000000 0.000000
0.301208 0.286128 -0.034298 0.300000 0.600000 0.000000
-0.551049 -0.360724 0.104688 0.600000 0.000000 0.300000
0.181717 0.323620 0.559137 1.000000 0.000000 0.000000
-0.699109 -0.382540 0.385800 1.000000 0.000000 0.000000
0.063467 0.323620 0.005357 1.000000 0.000000 0.000000
-0.281166 -0.380093 -0.219736 0.600000 0.000000 0.300000
-0.660372 0.006488 -0.439366 0.600000 0.000000 0.300000
0.004212 0.342988 0.050223 1.000000 0.000000 0.000000
0.111694 0.342988 0.573215 1.000000 0.000000 0.000000
-0.480012 0.323620 0.469379 1.000000 0.000000 0.000000
0.011060 0.280178 -0.081833 0.600000 0.000000 0.300000
0.001541 -0.380093 -0.296531 0.600000 0.000000 0.300000
0.533048 0.323620 -0.456566 1.000000 0.000000 0.000000
-0.387090 -0.360724 0.083481 0.600000 0.000000 0.300000
-0.005281 -0.380093 -0.486462 0.600000 0.000000 0.300000
0.239081 -0.445340 -0.512048 0.000000 1.000000 0.000000
-0.001578 0.213867 -0.435800 0.600000 0.000000 0.300000
-0.610837 0.342988 0.257818 1.000000 0.000000 0.000000
0.146195 0.342988 -0.058100 1.000000 0.000000 0.000000
-0.538625 0.304252 -0.338547 1.000000 0.000000 0.000000
-0.093354 -0.380093 0.320335 0.600000 0.000000 0.300000
0.121584 -0.380671 0.520925 0.000000 0.000000 1.000000
0.643756 -0.465987 0.327567 0.800000 0.200000 0.500000
0.011060 0.273762 -0.477767 0.600000 0.000000 0.300000
-0.660372 -0.185377 0.397201 0.300000 0.000000 0.600000
-0.660372 -0.342391 -0.510431 0.600000 0.000000 0.300000
-0.660372 0.235891 -0.313744 0.000000 0.500000 0.500000
0.402368 0.342988 -0.610181 1.000000 0.000000 0.000000
0.583516 0.323620 0.177352 1.000000 0.000000 0.000000
0.613530 0.342988 -0.016503 1.000000 0.000000 0.000000
-0.565145 -0.360227 0.465868 0.300000 0.000000 0.600000
-0.277680 0.323620 -0.075521 1.000000 0.000000 0.000000
-0.507621 0.323620 0.336637 1.000000 0.000000 0.000000
0.208325 0.323620 0.297588 1.000000 0.000000 0.000000
-0.348594 0.342988 0.140906 1.000000 0.000000 0.000000
-0.099357 0.342988 -0.122380 1.000000 0.000000 0.000000
-0.600037 -0.204562 0.482188 0.300000 0.000000 0.600000
0.658104 -0.425454 0.520925 0.000000 0.000000 1.000000
0.682492 0.292075 -0.431425 0.500000 0.500000 0.000000
-0.210972 0.304252 -0.522110 1.000000 0.000000 0.000000
-0.482243 0.304252 0.501662 1.000000 0.000000 0.000000
0.543809 0.304252 -0.599043 1.000000 0.000000 0.000000
-0.493023 0.323620 0.190993 1.000000 0.000000 0.000000
0.406661 -0.360724 0.010174 0.600000 0.000000 0.300000
0.310624 -0.360724 -0.289177 0.600000 0.000000 0.300000
-0.469436 -0.465777 0.482188 0.000000 0.000000 1.000000
0.143151 0.342988 -0.328261 1.000000 0.000000 0.000000
0.630046 0.323620 0.168734 1.000000 0.000000 0.000000
-0.454563 0.342988 0.216147 1.000000 0.000000 0.000000
-0.660372 -0.443103 -0.003118 1.000000 0.000000 0.000000
0.011060 0.241336 -0.345091 0.600000 0.000000 0.300000
0.682492 -0.436176 0.059030 0.800000 0.200000 0.500000
-0.011066 0.271264 0.004438 0.300000 0.600000 0.000000
-0.577662 0.251127 0.004438 0.300000 0.600000 0.000000
0.164038 0.323620 0.120675 1.000000 0.000000 0.000000
0.472152 -0.360724 0.249267 0.600000 0.000000 0.300000
0.577491 -0.360724 -0.549209 0.600000 0.000000 0.300000
0.736877 0.323620 -0.049868 1.000000 0.000000 0.000000
0.303474 -0.409181 -0.550784 0.000000 1.000000 0.000000
-0.243590 -0.380093 0.069617 0.600000 0.000000 0.300000
0.113934 -0.380093 0.432472 0.600000 0.000000 0.300000
0.588494 0.275840 0.482188 0.600000 0.300000 0.000000
0.269416 0.323620 -0.019072 1.000000 0.000000 0.000000
-0.660372 -0.084599 -0.494914 0.600000 0.000000 0.300000
0.393640 0.342988 -0.527217 1.000000 0.000000 0.000000
-0.475553 0.279914 0.482188 0.500000 0.000000 0.500000
-0.497794 -0.360724 -0.234655 0.600000 0.000000 0.300000
-0.415549 -0.360724 0.002805 0.600000 0.000000 0.300000
-0.537790 -0.380093 0.515167 0.000000 0.000000 1.000000
0.539293 0.323620 -0.413934 1.000000 0.000000 0.000000
0.411883 0.278164 -0.512048 0.300000 0.000000 0.600000
-0.558429 0.342988 -0.387462 1.000000 0.000000 0.000000
0.501764 -0.459686 -0.512048 0.000000 1.000000 0.000000
0.409515 -0.380093 0.444818 0.600000 0.000000 0.300000
0.650269 -0.380093 0.132780 0.800000 0.200000 0.500000
-0.660372 0.266334 0.052875 0.000000 0.500000 0.500000
0.510829 0.304252 -0.273583 1.000000 0.000000 0.000000
0.301015 -0.360724 -0.116364 0.600000 0.000000 0.300000
-0.660372 -0.175409 0.457103 0.300000 0.000000 0.600000
0.643756 0.267445 -0.032966 0.300000 0.600000 0.000000
-0.699109 -0.448746 0.132076 1.000000 0.000000 0.000000
-0.251537 -0.360724 0.099407 0.600000 0.000000 0.300000
-0.565145 -0.090242 -0.477727 0.600000 0.000000 0.300000
0.696515 0.342988 -0.456620 1.000000 0.000000 0.000000
-0.738741 0.342988 0.259451 1.000000 0.000000 0.000000
-0.565145 0.211041 -0.432975 0.600000 0.000000 0.300000
-0.119347 0.323620 0.277073 1.000000 0.000000 0.000000
-0.017251 0.342988 0.334073 1.000000 0.000000 0.000000
-0.050079 -0.470478 0.518758 0.000000 0.000000 1.000000
-0.391669 -0.362919 -0.550784 0.600000 0.000000 0.300000
0.372913 0.323620 0.500518 1.000000 0.000000 0.000000
-0.660372 0.284904 0.000687 0.300000 0.600000 0.000000
0.604411 -0.470629 -0.550784 0.800000 0.200000 0.500000
-0.123109 0.278638 -0.550784 0.300000 0.000000 0.600000
-0.051461 -0.380093 -0.458612 0.600000 0.000000 0.300000
-0.014415 0.213867 -0.090587 0.600000 0.000000 0.300000
-0.076841 -0.470478 0.499984 0.000000 0.000000 1.000000
-0.402817 0.323620 -0.398256 1.000000 0.000000 0.000000
-0.049434 0.304252 0.492509 0.500000 0.000000 0.500000
-0.386366 -0.360724 -0.382610 0.600000 0.000000 0.300000
0.550472 -0.360724 -0.152694 0.600000 0.000000 0.300000
0.603631 -0.380093 -0.075469 0.600000 0.000000 0.300000
0.002840 0.342988 -0.049583 1.000000 0.000000 0.000000
0.214612 0.304252 0.097983 1.000000 0.000000 0.000000
0.703167 0.342988 0.476894 1.000000 0.000000 0.000000
-0.660372 0.226330 0.412432 0.000000 0.500000 0.500000
0.713855 0.342988 -0.605462 1.000000 0.000000 0.000000
0.327838 -0.360724 0.220257 0.600000 0.000000 0.300000
-0.666804 -0.380093 -0.160363 1.000000 0.000000 0.000000
-0.149399 0.342988 -0.514072 1.000000 0.000000 0.000000
0.560225 -0.360724 0.015878 0.600000 0.000000 0.300000
0.588356 -0.489846 0.444685 0.600000 0.000000 0.300000
0.253622 -0.360724 -0.317490 0.600000 0.000000 0.300000
0.498489 -0.406692 0.520925 0.000000 0.000000 1.000000
-0.548100 0.323620 0.024301 1.000000 0.000000 0.000000
-0.719384 0.304252 -0.567181 1.000000 0.000000 0.000000
-0.474106 0.342988 -0.199852 1.000000 0.000000 0.000000
0.211711 0.304252 -0.312821 1.000000 0.000000 0.000000
-0.586988 0.097512 -0.416821 0.600000 0.000000 0.300000
0.280318 -0.445219 -0.512048 0.000000 1.000000 0.000000
0.679707 -0.360724 -0.043707 0.600000 0.000000 0.300000
-0.639717 0.295322 0.386961 0.300000 0.000000 0.600000
-0.443686 0.312856 -0.615345 1.000000 0.000000 0.000000
-0.283190 0.304252 0.342119 1.000000 0.000000 0.000000
-0.144195 0.323620 0.005119 1.000000 0.000000 0.000000
-0.027676 0.272952 -0.150847 0.600000 0.000000 0.300000
0.016952 0.323620 -0.587622 1.000000 0.000000 0.000000
-0.316532 0.304252 0.418328 1.000000 0.000000 0.000000
0.179144 0.304252 -0.344713 1.000000 0.000000 0.000000
-0.106195 0.323620 -0.568363 1.000000 0.000000 0.000000
-0.171011 -0.360724 0.438406 0.600000 0.000000 0.300000
0.315178 0.323620 -0.511370 1.000000 0.000000 0.000000
-0.104472 0.323620 0.016512 1.000000 0.000000 0.000000
0.126146 0.304252 0.343954 1.000000 0.000000 0.000000
0.315871 0.342988 -0.439986 1.000000 0.000000 0.000000
-0.095926 -0.380093 -0.053410 0.600000 0.000000 0.300000
0.124731 -0.470478 0.497477 0.000000 0.000000 1.000000
0.196524 0.323620 0.422806 1.000000 0.000000 0.000000
-0.168257 0.323620 0.218306 1.000000 0.000000 0.000000
0.624619 -0.360724 0.505557 0.600000 0.000000 0.300000
0.301602 0.342988 -0.470684 1.000000 0.000000 0.000000
-0.644126 0.342988 -0.298476 1.000000 0.000000 0.000000
0.287298 0.342988 0.348868 1.000000 0.000000 0.000000
0.643756 -0.406683 -0.329382 0.800000 0.200000 0.500000
-0.047816 -0.360724 0.294791 0.600000 0.000000 0.300000
-0.652730 0.342988 0.311471 1.000000 0.000000 0.000000
-0.273406 -0.380093 -0.473021 0.600000 0.000000 0.300000
-0.267654 0.277838 -0.512048 0.300000 0.000000 0.600000
0.312822 -0.380093 -0.393562 0.600000 0.000000 0.300000
-0.610807 0.304252 -0.576816 1.000000 0.000000 0.000000
0.548528 -0.169865 0.435217 0.600000 0.300000 0.000000
0.643756 0.234950 -0.166664 0.500000 0.500000 0.000000
0.324860 -0.470478 -0.516166 0.000000 1.000000 0.000000
-0.103661 -0.360724 0.243249 0.600000 0.000000 0.300000
0.698133 0.323620 0.167718 1.000000 0.000000 0.000000
-0.387816 0.323620 0.212361 1.000000 0.000000 0.000000
0.566008 0.304252 -0.276948 1.000000 0.000000 0.000000
-0.527946 0.342988 0.551882 1.000000 0.000000 0.000000
0.012067 -0.411008 -0.550784 0.000000 1.000000 0.000000
0.304311 0.219815 0.004438 0.300000 0.600000 0.000000
0.250877 0.323620 -0.318461 1.000000 0.000000 0.000000
0.667486 0.213867 -0.204121 0.500000 0.500000 0.000000
0.011060 0.271355 0.213532 0.600000 0.000000 0.300000
-0.581760 -0.544656 -0.447687 0.600000 0.300000 0.000000
-0.611709 0.129625 -0.416821 0.600000 0.000000 0.300000
-0.637577 -0.470478 -0.518048 0.600000 0.300000 0.000000
0.548528 -0.211728 -0.502533 0.300000 0.000000 0.600000
-0.696077 -0.380093 0.155040 0.600000 0.000000 0.300000
-0.330621 0.323620 0.527847 1.000000 0.000000 0.000000
-0.281894 0.323620 0.142031 1.000000 0.000000 0.000000
0.643756 0.059954 -0.431427 0.300000 0.000000 0.600000
-0.097660 -0.380093 0.427720 0.600000 0.000000 0.300000
0.185270 -0.380093 -0.492241 0.600000 0.000000 0.300000
-0.721337 0.304252 0.527929 1.000000 0.000000 0.000000
0.344871 0.304252 0.078730 1.000000 0.000000 0.000000
-0.415381 0.323620 -0.047339 1.000000 0.000000 0.000000
-0.518123 0.304252 0.106095 1.000000 0.000000 0.000000
0.747053 0.339248 -0.184619 1.000000 0.000000 0.000000
-0.466635 0.342988 -0.169088 1.000000 0.000000 0.000000
-0.048177 -0.380093 0.447515 0.600000 0.000000 0.300000
0.225259 0.342988 -0.306932 1.000000 0.000000 0.000000
-0.491581 -0.360724 0.144104 0.600000 0.000000 0.300000
-0.123579 0.304252 0.581283 1.000000 0.000000 0.000000
-0.243881 -0.470478 -0.549179 0.000000 1.000000 0.000000
0.272099 0.323620 0.364432 1.000000 0.000000 0.000000
0.011060 0.242312 0.456884 0.600000 0.000000 0.300000
-0.220791 0.342988 0.360757 1.000000 0.000000 0.000000
-0.442474 0.304252 -0.580414 1.000000 0.000000 0.000000
0.643756 -0.057007 0.465598 0.600000 0.300000 0.000000
0.011060 0.238944 0.077353 0.600000 0.000000 0.300000
0.747053 0.317476 -0.430263 1.000000 0.000000 0.000000
-0.690967 0.323620 0.243671 1.000000 0.000000 0.000000
-0.438874 -0.460286 -0.550784 0.000000 1.000000 0.000000
0.527969 -0.360724 -0.180201 0.600000 0.000000 0.300000
-0.246806 0.304252 -0.055227 1.000000 0.000000 0.000000
-0.008069 0.253049 -0.512048 0.300000 0.000000 0.600000
-0.423532 0.304252 0.558677 1.000000 0.000000 0.000000
0.441638 0.323620 0.347035 1.000000 0.000000 0.000000
-0.699109 0.296097 0.494026 0.500000 0.000000 0.500000
-0.360428 -0.404899 -0.550784 0.000000 1.000000 0.000000
-0.404658 -0.360724 -0.500357 0.600000 0.000000 0.300000
0.037203 0.342988 -0.479451 1.000000 0.000000 0.000000
-0.504261 -0.380093 -0.454191 0.600000 0.000000 0.300000
0.505834 -0.380093 0.251412 0.600000 0.000000 0.300000
0.571003 0.236908 -0.034298 0.300000 0.600000 0.000000
-0.238126 -0.380093 -0.135058 0.600000 0.000000 0.300000
0.108362 0.323620 0.518803 1.000000 0.000000 0.000000
-0.519816 -0.486130 -0.458921 0.600000 0.300000 0.000000
0.233038 0.323620 0.087664 1.000000 0.000000 0.000000
-0.591449 0.005485 0.386961 0.300000 0.000000 0.600000
-0.458118 -0.380093 0.194484 0.600000 0.000000 0.300000
-0.565145 -0.437607 0.435804 0.300000 0.000000 0.600000
0.488051 -0.380093 0.485857 0.000000 0.000000 1.000000
0.681936 -0.380093 0.302600 0.800000 0.200000 0.500000
-0.085778 -0.405821 -0.550784 0.000000 1.000000 0.000000
0.200052 0.323620 0.130467 1.000000 0.000000 0.000000
-0.567461 -0.470478 0.386051 0.300000 0.000000 0.600000
-0.532486 0.304252 0.465445 1.000000 0.000000 0.000000
0.574383 -0.012860 -0.416821 0.300000 0.000000 0.600000
0.103135 -0.380093 0.211870 0.600000 0.000000 0.300000
0.161356 0.323620 -0.408192 1.000000 0.000000 0.000000
-0.604997 -0.380093 -0.137803 0.600000 0.000000 0.300000
0.591429 -0.487229 0.520925 0.600000 0.000000 0.300000
-0.027676 0.298081 -0.216748 0.600000 0.000000 0.300000
-0.048658 0.323620 -0.271253 1.000000 0.000000 0.000000
-0.469374 0.342988 -0.003244 1.000000 0.000000 0.000000
0.198018 0.304252 -0.447052 1.000000 0.000000 0.000000
0.011060 -0.405552 -0.261399 0.600000 0.000000 0.300000
-0.513159 -0.412740 -0.512048 0.000000 1.000000 0.000000
-0.174136 0.264774 -0.512048 0.300000 0.000000 0.600000
-0.250812 -0.380093 -0.416474 0.600000 0.000000 0.300000
-0.467804 0.304252 0.355102 1.000000 0.000000 0.000000
0.132535 0.274912 0.482188 0.500000 0.000000 0.500000
-0.087184 -0.380093 0.209762 0.600000 0.000000 0.300000
0.548528 -0.356677 -0.478561 0.300000 0.000000 0.600000
-0.721126 0.304252 -0.254784 1.000000 0.000000 0.000000
-0.023188 -0.470478 0.212183 0.600000 0.000000 0.300000
0.222136 0.323620 -0.126298 1.000000 0.000000 0.000000
-0.660372 -0.461592 0.390993 1.000000 0.000000 0.000000
0.533648 0.323620 -0.354820 1.000000 0.000000 0.000000
0.732144 0.323620 0.474444 1.000000 0.000000 0.000000
-0.606254 -0.360724 -0.193736 0.600000 0.000000 0.300000
0.269641 0.323620 -0.576775 1.000000 0.000000 0.000000
-0.562093 0.223652 -0.512048 0.300000 0.000000 0.600000
-0.364265 0.323620 0.092066 1.000000 0.000000 0.000000
0.067285 0.323620 -0.121263 1.000000 0.000000 0.000000
-0.139471 0.323620 0.103352 1.000000 0.000000 0.000000
-0.666490 0.323620 -0.252299 1.000000 0.000000 0.000000
-0.621351 0.342988 -0.442444 1.000000 0.000000 0.000000
-0.096939 -0.380093 -0.207441 0.600000 0.000000 0.300000
0.662655 0.213867 -0.063492 0.500000 0.500000 0.000000
0.643756 -0.424175 -0.084615 0.800000 0.200000 0.500000
0.010318 0.323620 0.269998 1.000000 0.000000 0.000000
0.439533 0.304252 -0.168161 1.000000 0.000000 0.000000
-0.604844 -0.520425 -0.495788 0.600000 0.300000 0.000000
0.643756 0.239113 -0.089025 0.500000 0.500000 0.000000
-0.385684 0.323620 0.014047 1.000000 0.000000 0.000000
-0.758740 0.304252 -0.122834 1.000000 0.000000 0.000000
0.272947 -0.380093 0.353383 0.600000 0.000000 0.300000
0.149423 0.323620 0.536562 1.000000 0.000000 0.000000
0.335593 -0.360724 0.012263 0.600000 0.000000 0.300000
-0.699109 0.239460 0.438195 0.000000 0.500000 0.500000
-0.660372 -0.422755 0.107698 1.000000 0.000000 0.000000
0.176756 0.342988 0.149923 1.000000 0.000000 0.000000
0.264807 -0.380093 -0.025590 0.600000 0.000000 0.300000
-0.492806 -0.380093 -0.546064 0.000000 1.000000 0.000000
0.059961 -0.360724 -0.002098 0.600000 0.000000 0.300000
0.181157 0.269400 0.520925 0.500000 0.000000 0.500000
-0.303065 0.342988 -0.168889 1.000000 0.000000 0.000000
0.485539 0.342988 0.314735 1.000000 0.000000 0.000000
-0.215171 0.227391 0.482188 0.500000 0.000000 0.500000
-0.027676 0.216705 0.109276 0.600000 0.000000 0.300000
0.053901 0.304252 -0.445948 1.000000 0.000000 0.000000
0.682492 -0.397206 -0.529459 0.000000 1.000000 0.000000
-0.169640 -0.360724 -0.038455 0.600000 0.000000 0.300000
-0.602099 -0.360724 -0.495347 0.600000 0.000000 0.300000
-0.655490 0.304252 -0.034510 1.000000 0.000000 0.000000
-0.564651 0.323620 -0.167204 1.000000 0.000000 0.000000
-0.416954 0.323620 -0.329573 1.000000 0.000000 0.000000
0.500251 0.323620 0.061765 1.000000 0.000000 0.000000
0.293391 -0.380093 0.228958 0.600000 0.000000 0.300000
0.599313 0.226602 0.482188 0.600000 0.300000 0.000000
0.318928 0.342988 0.464369 1.000000 0.000000 0.000000
-0.492317 0.323620 0.269779 1.000000 0.000000 0.000000
0.011060 -0.403164 -0.474244 0.600000 0.000000 0.300000
-0.107432 0.323620 -0.532266 1.000000 0.000000 0.000000
-0.485895 0.323620 -0.215426 1.000000 0.000000 0.000000
0.733881 0.304252 0.420639 1.000000 0.000000 0.000000
-0.699109 0.256560 0.358822 0.000000 0.500000 0.500000
0.365483 0.323620 0.232194 1.000000 0.000000 0.000000
0.310417 -0.360724 0.437117 0.600000 0.000000 0.300000
0.602151 -0.380093 0.218588 0.600000 0.000000 0.300000
-0.353174 -0.360724 -0.201494 0.600000 0.000000 0.300000
-0.578468 -0.380093 0.060251 0.600000 0.000000 0.300000
0.645957 -0.380093 -0.052789 0.800000 0.200000 0.500000
-0.164302 0.323620 -0.231495 1.000000 0.000000 0.000000
0.011060 0.219099 -0.109337 0.600000 0.000000 0.300000
-0.689850 -0.470478 0.336746 1.000000 0.000000 0.000000
0.579514 -0.136442 0.482188 0.600000 0.300000 0.000000
0.032226 0.304252 -0.598357 1.000000 0.000000 0.000000
-0.213600 0.342988 -0.245330 1.000000 0.000000 0.000000
0.574483 -0.489846 -0.515796 0.800000 0.200000 0.500000
-0.108277 0.323620 -0.502563 1.000000 0.000000 0.000000
-0.205273 -0.380093 0.179178 0.600000 0.000000 0.300000
0.308042 -0.380093 0.068358 0.600000 0.000000 0.300000
-0.415705 -0.360724 0.475102 0.600000 0.000000 0.300000
0.105903 0.304252 -0.475772 1.000000 0.000000 0.000000
0.644621 -0.470478 -0.413704 0.800000 0.200000 0.500000
0.150535 0.304252 -0.385129 1.000000 0.000000 0.000000
-0.031841 -0.360724 -0.084735 0.600000 0.000000 0.300000
-0.173212 0.342988 0.305984 1.000000 0.000000 0.000000
0.332884 -0.360724 -0.481021 0.600000 0.000000 0.300000
-0.660372 -0.001284 0.457103 0.300000 0.000000 0.600000
0.541757 -0.360724 0.047266 0.600000 0.000000 0.300000
0.631265 0.323620 -0.234614 1.000000 0.000000 0.000000
-0.176597 0.323620 0.507568 1.000000 0.000000 0.000000
0.082939 -0.380093 0.017057 0.600000 0.000000 0.300000
-0.670823 0.304252 -0.275122 0.000000 0.500000 0.500000
-0.697546 -0.470478 -0.309276 0.600000 0.300000 0.000000
-0.657931 -0.360724 -0.068163 0.600000 0.000000 0.300000
0.643756 -0.412134 -0.482207 0.300000 0.000000 0.600000
0.643756 -0.128793 -0.489998 0.300000 0.000000 0.600000
0.414137 0.304252 0.251208 1.000000 0.000000 0.000000
-0.422673 -0.380093 -0.014572 0.600000 0.000000 0.300000
-0.010241 0.323620 0.143205 1.000000 0.000000 0.000000
-0.699109 -0.464786 0.479704 1.000000 0.000000 0.000000
0.657434 -0.380093 -0.400317 0.800000 0.200000 0.500000
-0.558250 0.342988 -0.092114 1.000000 0.000000 0.000000
-0.676212 0.213867 0.452767 0.000000 0.500000 0.500000
0.011060 -0.384583 0.343791 0.600000 0.000000 0.300000
0.644052 -0.360724 -0.148837 0.600000 0.000000 0.300000
-0.001541 0.213867 0.151774 0.600000 0.000000 0.300000
0.643756 -0.423247 0.227340 0.800000 0.200000 0.500000
-0.578426 0.323620 -0.407211 1.000000 0.000000 0.000000
-0.137057 0.323620 -0.097467 1.000000 0.000000 0.000000
0.573408 0.304252 0.402116 0.600000 0.300000 0.000000
0.643756 -0.005778 0.421423 0.600000 0.300000 0.000000
0.460068 0.323620 -0.166888 1.000000 0.000000 0.000000
-0.544246 0.342988 0.255126 1.000000 0.000000 0.000000
-0.195697 0.304252 0.462477 1.000000 0.000000 0.000000
0.571733 0.304252 0.580879 1.000000 0.000000 0.000000
0.147146 -0.360724 -0.362070 0.600000 0.000000 0.300000
-0.566105 0.006389 -0.512048 0.600000 0.000000 0.300000
-0.418889 0.323620 -0.546564 1.000000 0.000000 0.000000
-0.515066 0.342988 -0.144055 1.000000 0.000000 0.000000
-0.425024 -0.380093 -0.519077 0.600000 0.000000 0.300000
-0.565145 0.153931 -0.463305 0.600000 0.000000 0.300000
-0.466309 0.304252 -0.537807 1.000000 0.000000 0.000000
0.498315 -0.380093 -0.207769 0.600000 0.000000 0.300000
-0.328896 0.342988 0.442112 1.000000 0.000000 0.000000
0.589709 -0.100579 -0.416821 0.300000 0.000000 0.600000
-0.317516 0.323620 -0.365346 1.000000 0.000000 0.000000
0.351744 0.342988 0.399233 1.000000 0.000000 0.000000
0.269889 -0.360724 0.190534 0.600000 0.000000 0.300000
-0.134008 0.323620 0.323792 1.000000 0.000000 0.000000
-0.337931 0.342988 -0.030620 1.000000 0.000000 0.000000
-0.005290 0.342988 -0.422115 1.000000 0.000000 0.000000
0.682492 -0.466282 -0.293283 0.800000 0.200000 0.500000
-0.565145 -0.087889 -0.423158 0.600000 0.000000 0.300000
-0.321646 -0.441892 0.482188 0.000000 0.000000 1.000000
-0.434699 0.323620 -0.280332 1.000000 0.000000 0.000000
-0.498965 -0.360724 0.347251 0.600000 0.000000 0.300000
0.442691 0.296448 0.520925 0.500000 0.000000 0.500000
-0.554622 -0.360724 0.078814 0.600000 0.000000 0.300000
-0.270244 -0.360724 0.209265 0.600000 0.000000 0.300000
-0.660372 -0.415017 0.308643 1.000000 0.000000 0.000000
-0.373692 0.304252 -0.288524 1.000000 0.000000 0.000000
-0.259539 0.304252 0.560454 1.000000 0.000000 0.000000
0.272794 -0.380093 -0.265465 0.600000 0.000000 0.300000
-0.040189 0.342988 0.359470 1.000000 0.000000 0.000000
-0.429850 -0.360724 0.061721 0.600000 0.000000 0.300000
-0.513485 0.342988 0.414252 1.000000 0.000000 0.000000
-0.660372 -0.106931 0.470775 0.300000 0.000000 0.600000
0.280173 0.277883 0.004438 0.300000 0.600000 0.000000
0.584795 -0.380093 -0.199101 0.600000 0.000000 0.300000
0.238739 0.342988 0.431890 1.000000 0.000000 0.000000
-0.187978 -0.380093 0.483542 0.600000 0.000000 0.300000
-0.413048 0.323620 -0.101547 1.000000 0.000000 0.000000
-0.588777 0.342988 0.213463 1.000000 0.000000 0.000000
0.275688 0.342988 0.272834 1.000000 0.000000 0.000000
-0.162496 0.323620 0.079182 1.000000 0.000000 0.000000
-0.378961 -0.360724 0.394085 0.600000 0.000000 0.300000
-0.135228 0.323620 0.179128 1.000000 0.000000 0.000000
-0.184380 0.304252 -0.577572 1.000000 0.000000 0.000000
0.042868 0.342988 0.481296 1.000000 0.000000 0.000000
0.540959 -0.380093 0.359562 0.600000 0.000000 0.300000
-0.631213 -0.516417 0.381156 0.500000 0.000000 0.500000
-0.258890 0.323620 0.287750 1.000000 0.000000 0.000000
-0.133253 -0.360724 0.121738 0.600000 0.000000 0.300000
0.120829 -0.405675 0.482188 0.000000 0.000000 1.000000
-0.463401 -0.414014 0.520925 0.000000 0.000000 1.000000
0.207678 0.304252 -0.498894 1.000000 0.000000 0.000000
-0.493289 0.304252 0.014197 1.000000 0.000000 0.000000
0.643756 0.131151 0.413840 0.600000 0.300000 0.000000
0.025416 0.342988 0.459864 1.000000 0.000000 0.000000
0.695474 0.304252 -0.471698 1.000000 0.000000 0.000000
-0.220598 0.323620 -0.292600 1.000000 0.000000 0.000000
0.353247 -0.360724 0.319947 0.600000 0.000000 0.300000
0.717480 0.323620 -0.419511 1.000000 0.000000 0.000000
0.682492 0.249940 -0.325048 0.500000 0.500000 0.000000
-0.633201 0.187855 0.482188 0.300000 0.000000 0.600000
0.651298 0.304252 -0.300376 0.500000 0.500000 0.000000
