ply
format ascii 1.0
element vertex 1292
property float x
property float y
property float z
property uchar red
property uchar green
property uchar blue
end_header
-0.595495 -0.511685 0.387435 127 127 0
-0.335019 0.304252 -0.100611 255 0 0
0.006978 0.323620 -0.549414 255 0 0
-0.147148 0.342988 -0.502910 255 0 0
-0.027676 0.235367 -0.088748 153 0 76
0.470873 0.248161 -0.034298 76 153 0
-0.202859 -0.360724 0.477651 153 0 76
-0.523225 0.342988 -0.407676 255 0 0
0.678392 0.304252 -0.109670 255 0 0
-0.290574 0.213867 -0.007879 76 153 0
0.327534 0.323620 0.465146 255 0 0
-0.092260 0.260639 0.520925 127 0 127
-0.381074 0.323620 0.311445 255 0 0
0.643756 0.243693 -0.022416 127 127 0
0.159778 -0.360724 0.032444 153 0 76
0.461196 0.304252 -0.000218 255 0 0
0.220033 -0.360724 -0.422293 153 0 76
0.011060 0.293638 -0.419323 255 0 0
-0.136897 -0.470478 -0.542840 0 255 0
-0.378244 0.304252 0.262084 255 0 0
-0.186840 -0.380093 0.007471 153 0 76
-0.415188 0.323620 0.573278 255 0 0
0.202320 -0.380093 0.047175 153 0 76
-0.437324 -0.380093 0.215847 153 0 76
-0.023735 0.342988 -0.019836 255 0 0
-0.510984 -0.360724 -0.392273 153 0 76
0.558419 -0.360724 -0.430394 76 0 153
0.354160 0.342988 0.089942 255 0 0
0.242848 0.323620 -0.434618 255 0 0
0.158184 0.342988 0.320135 255 0 0
-0.742794 0.323620 -0.485181 255 0 0
0.458127 0.323620 0.559486 255 0 0
-0.027676 -0.454095 -0.242677 153 0 76
-0.679375 0.342988 0.395527 255 0 0
0.164027 -0.360724 0.176469 153 0 76
-0.660372 -0.153435 0.394489 76 0 153
-0.616063 -0.211052 -0.512048 153 0 76
-0.538516 -0.470478 0.502180 0 0 255
-0.534231 -0.360724 0.306448 153 0 76
-0.487010 0.323620 0.350328 255 0 0
0.061633 0.272493 0.004438 76 153 0
0.546961 -0.380093 -0.346033 153 0 76
-0.421182 0.342988 -0.319122 255 0 0
-0.205711 0.342988 0.316014 255 0 0
-0.278038 -0.380093 -0.439470 153 0 76
-0.635552 0.083826 -0.512048 153 0 76
-0.178605 -0.380093 -0.017970 153 0 76
0.343176 -0.360724 -0.000665 153 0 76
-0.203682 0.323620 0.392764 255 0 0
0.356135 -0.380093 0.070675 153 0 76
-0.006755 0.342988 -0.066487 255 0 0
-0.706986 0.323620 0.280771 255 0 0
-0.450467 0.323620 -0.252187 255 0 0
0.480555 0.323620 0.585164 255 0 0
-0.365938 -0.380093 -0.122966 153 0 76
-0.606369 -0.444663 -0.550784 0 255 0
0.548528 -0.124376 -0.503001 76 0 153
-0.369030 -0.360724 0.246447 153 0 76
-0.650741 -0.470478 -0.531303 0 255 0
-0.304211 0.323620 0.428531 255 0 0
0.548528 -0.183822 -0.468445 76 0 153
-0.582912 0.212125 0.386961 76 0 153
-0.251380 0.264262 0.004438 76 153 0
0.191327 -0.380093 0.214405 153 0 76
-0.512772 0.323620 -0.360370 255 0 0
0.575373 -0.360724 0.201415 153 0 76
0.266037 -0.380093 -0.030930 153 0 76
-0.572315 -0.360724 0.333564 153 0 76
0.007441 0.323620 -0.017515 255 0 0
0.682492 0.224619 -0.072987 127 127 0
-0.699109 -0.460713 -0.408638 255 0 0
-0.680672 0.323620 -0.476673 255 0 0
-0.742718 0.323620 0.023543 255 0 0
0.533949 -0.380093 -0.082734 153 0 76
-0.536141 -0.489846 -0.532442 153 76 0
-0.002802 -0.380093 -0.478620 153 0 76
0.581865 0.323620 -0.538967 255 0 0
-0.179206 0.221815 0.004438 76 153 0
-0.763669 0.330879 0.074907 255 0 0
0.472446 0.304252 0.220440 255 0 0
0.515338 0.323620 -0.418983 255 0 0
0.011060 0.278919 0.267201 153 0 76
-0.005213 0.341971 -0.615345 255 0 0
0.355105 0.342988 -0.333401 255 0 0
-0.360895 0.323620 -0.024026 255 0 0
-0.519154 0.304252 0.509319 127 0 127
-0.674980 0.342988 -0.217130 255 0 0
-0.603239 0.323620 0.257062 255 0 0
0.664739 -0.380093 -0.315716 204 51 127
0.510939 -0.360724 -0.511302 153 0 76
0.680316 0.323620 -0.181649 255 0 0
0.364248 -0.380093 0.464062 153 0 76
-0.165368 0.323620 0.383656 255 0 0
0.224645 -0.380093 0.415945 153 0 76
-0.263599 0.323620 0.477124 255 0 0
0.015085 -0.360724 -0.345196 153 0 76
0.239638 0.314453 0.585485 255 0 0
0.387721 -0.360724 -0.215874 153 0 76
0.479269 0.304252 -0.569573 255 0 0
-0.560118 0.342988 -0.523044 255 0 0
0.581970 -0.107716 -0.512048 76 0 153
0.656826 -0.380093 -0.185855 204 51 127
-0.218525 0.342988 0.113668 255 0 0
-0.121634 0.304252 0.246643 255 0 0
0.682492 -0.369717 0.150370 153 0 76
0.050227 -0.380093 -0.181560 153 0 76
0.247806 0.342988 -0.451306 255 0 0
0.237660 -0.360724 0.201011 153 0 76
0.643756 0.276010 0.250724 127 127 0
0.629474 0.183963 0.482188 153 76 0
-0.013613 -0.380093 0.513064 153 0 76
-0.348668 0.323620 -0.191811 255 0 0
0.642147 0.323620 -0.411626 255 0 0
-0.539014 0.342988 0.446887 255 0 0
0.548528 -0.055941 0.455604 153 76 0
-0.078361 -0.380093 -0.131427 153 0 76
0.117588 0.304252 0.139948 255 0 0
-0.185841 -0.360724 -0.459210 153 0 76
-0.681171 -0.380093 -0.357610 255 0 0
-0.453601 -0.470478 -0.547247 0 255 0
0.218151 0.323620 0.241840 255 0 0
0.488278 -0.465947 0.520925 0 0 255
0.250670 -0.380093 0.424877 153 0 76
-0.660372 0.062237 -0.466314 153 0 76
0.346691 0.304252 0.247167 255 0 0
0.568031 -0.470478 0.459668 153 76 0
0.247371 -0.380093 0.218201 153 0 76
0.643756 -0.405570 -0.180240 204 51 127
-0.697016 -0.380093 -0.079511 153 0 76
-0.219026 -0.360724 0.166741 153 0 76
-0.271757 0.323620 -0.261300 255 0 0
0.093873 -0.360724 0.338201 153 0 76
-0.334377 0.342988 -0.547421 255 0 0
0.019187 0.342988 0.098330 255 0 0
-0.112639 0.248101 0.004438 76 153 0
-0.006280 0.323620 0.411894 255 0 0
0.643756 0.268124 0.108566 127 127 0
-0.485223 0.342988 0.295354 255 0 0
-0.636352 -0.489846 0.456761 127 127 0
0.540505 0.304252 0.385923 255 0 0
0.174428 -0.380093 -0.358031 153 0 76
0.167421 0.323620 -0.558151 255 0 0
-0.441966 0.342988 -0.014935 255 0 0
0.238547 0.323620 -0.583177 255 0 0
0.301929 0.213867 0.488644 127 0 127
0.054122 0.323620 -0.229987 255 0 0
0.042463 0.342988 -0.472056 255 0 0
0.293748 0.323620 -0.193184 255 0 0
0.461716 0.301878 -0.034298 255 0 0
0.070727 -0.360724 -0.122550 153 0 76
-0.660372 0.266725 0.089445 0 127 127
-0.149386 -0.360724 -0.493638 153 0 76
-0.227300 0.323620 0.552189 255 0 0
-0.023574 0.304252 0.008353 255 0 0
0.439362 0.323620 0.077216 255 0 0
0.080071 0.304252 0.116808 255 0 0
0.673374 0.244816 -0.550784 76 0 153
0.547627 0.213867 -0.020776 76 153 0
0.392286 0.323620 -0.022231 255 0 0
0.464347 0.323620 -0.295631 255 0 0
0.414628 0.286316 0.004438 76 153 0
0.492430 -0.380093 -0.310260 153 0 76
0.286823 -0.380093 -0.088094 153 0 76
-0.389889 0.323620 -0.267703 255 0 0
0.425469 0.304252 0.126259 255 0 0
0.123959 0.304252 -0.092091 255 0 0
-0.407247 -0.380093 -0.147731 153 0 76
-0.317872 -0.360724 0.181264 153 0 76
-0.585245 0.162791 0.482188 76 0 153
0.628519 0.342988 -0.089726 255 0 0
-0.185943 0.304252 -0.015604 255 0 0
-0.418418 0.323620 0.270582 255 0 0
0.682492 -0.419194 0.123224 204 51 127
-0.437949 -0.380093 -0.176751 153 0 76
0.528193 -0.470478 0.456767 153 0 76
0.548528 -0.268902 -0.434234 76 0 153
0.453517 0.304252 0.169440 255 0 0
0.319486 0.323620 -0.058934 255 0 0
-0.143073 0.323620 0.267503 255 0 0
-0.572253 -0.238031 0.482188 76 0 153
-0.628855 -0.533270 0.431021 127 0 127
-0.719016 0.304252 -0.338120 255 0 0
-0.381666 0.342988 -0.054619 255 0 0
0.359412 -0.360724 -0.217404 153 0 76
-0.532765 0.342988 -0.046931 255 0 0
-0.373678 0.342988 0.476518 255 0 0
-0.298829 -0.380093 0.287173 153 0 76
-0.576172 0.304252 -0.067538 255 0 0
0.176533 -0.360724 -0.109293 153 0 76
-0.487526 0.304252 0.381161 255 0 0
-0.290799 0.323620 0.400684 255 0 0
0.613904 -0.360724 0.338849 153 0 76
0.643756 0.280096 0.419604 127 127 0
0.256361 -0.380093 0.336675 153 0 76
-0.009156 0.213867 -0.090377 153 0 76
-0.183137 0.323620 0.255150 255 0 0
0.497130 0.342988 0.260445 255 0 0
-0.243036 0.323620 -0.217820 255 0 0
0.541053 0.340962 -0.615345 255 0 0
-0.508857 0.304252 0.041834 255 0 0
-0.192591 -0.380093 -0.124480 153 0 76
0.659049 -0.470478 -0.079651 204 51 127
-0.614306 -0.380093 0.496753 153 0 76
0.618367 -0.339171 -0.512048 76 0 153
0.524846 -0.552839 0.424691 76 153 0
0.324803 0.272374 -0.034298 76 153 0
0.723802 0.323620 -0.613856 255 0 0
0.404723 -0.380093 -0.147952 153 0 76
-0.257297 -0.380093 -0.326755 153 0 76
0.670928 0.342988 -0.560832 255 0 0
0.020086 0.342988 0.023517 255 0 0
-0.050060 -0.380093 -0.150941 153 0 76
-0.180365 0.213867 -0.532407 76 0 153
0.390631 0.243602 0.482188 127 0 127
-0.622783 0.060258 0.482188 76 0 153
0.503973 0.323620 0.204098 255 0 0
-0.154972 0.304252 -0.257429 255 0 0
0.009730 -0.380093 0.317086 153 0 76
0.576698 -0.584790 0.455358 76 153 0
-0.256615 -0.380093 0.234686 153 0 76
-0.699109 0.288971 0.269849 0 127 127
0.658191 -0.489846 0.360533 153 0 76
0.211932 0.304252 0.359132 255 0 0
-0.699109 -0.415242 0.226503 255 0 0
0.241797 -0.445649 -0.550784 0 255 0
-0.659929 -0.380093 -0.005648 255 0 0
0.304706 -0.380093 -0.248208 153 0 76
0.105012 -0.380093 -0.298193 153 0 76
0.548528 0.030992 -0.482220 76 0 153
-0.742075 0.323620 -0.527973 255 0 0
0.131709 -0.380093 -0.197454 153 0 76
-0.660372 -0.408362 -0.203296 255 0 0
-0.005140 0.323620 0.242118 255 0 0
0.519623 0.304252 -0.254442 255 0 0
-0.325107 0.342988 -0.232942 255 0 0
-0.104281 -0.360724 -0.350544 153 0 76
-0.134459 0.342988 0.047489 255 0 0
-0.183483 0.323620 0.531335 255 0 0
0.272589 -0.439936 0.482188 0 0 255
0.162779 -0.360724 0.283317 153 0 76
0.519237 0.342988 0.183199 255 0 0
0.548528 0.141624 0.416630 153 76 0
0.659104 0.342988 -0.345587 255 0 0
0.011060 -0.380135 0.192219 153 0 76
0.009261 -0.380093 0.133257 153 0 76
0.548528 -0.160053 0.405169 153 76 0
-0.660372 -0.438670 -0.092300 255 0 0
-0.610380 -0.486175 0.520925 76 0 153
0.694320 0.342988 -0.479580 255 0 0
0.066237 0.342988 -0.103112 255 0 0
0.403851 -0.380093 0.436761 153 0 76
-0.681182 0.213867 0.212662 0 127 127
0.236392 0.304252 -0.331347 255 0 0
0.682492 0.238511 0.481837 127 127 0
-0.179093 0.323620 -0.480136 255 0 0
0.657481 0.323620 0.424279 255 0 0
-0.039230 -0.360724 0.473855 153 0 76
0.516672 -0.360724 -0.079349 153 0 76
0.643756 0.295123 0.070653 255 0 0
0.111634 0.304252 -0.396550 255 0 0
0.058877 -0.391304 0.520925 0 0 255
0.387280 -0.470478 -0.540603 0 255 0
-0.583920 -0.291301 0.386961 76 0 153
0.057147 0.342988 0.264055 255 0 0
0.136759 0.342988 -0.297785 255 0 0
0.495160 0.342988 0.067986 255 0 0
-0.054001 0.342988 -0.599971 255 0 0
-0.688355 -0.360724 -0.021620 153 0 76
-0.278016 0.342988 0.094958 255 0 0
0.011060 -0.443858 0.365731 153 0 76
-0.699109 -0.408969 0.458331 255 0 0
-0.555117 0.323620 0.447424 255 0 0
0.407419 0.213867 -0.530802 76 0 153
-0.021490 0.213867 0.420849 153 0 76
0.182567 0.342988 -0.484870 255 0 0
0.371651 -0.360724 -0.125061 153 0 76
0.682492 -0.367120 0.120777 204 51 127
0.167095 -0.360724 0.007370 153 0 76
0.550516 0.070726 -0.512048 76 0 153
0.698199 0.323620 0.313866 255 0 0
-0.255169 0.323620 0.521751 255 0 0
-0.433416 0.342988 -0.271806 255 0 0
-0.347618 0.248230 0.482188 127 0 127
-0.206547 0.304252 0.076260 255 0 0
-0.419440 0.342988 -0.415696 255 0 0
0.438522 0.323620 0.438386 255 0 0
-0.046194 -0.380093 0.363754 153 0 76
-0.461552 0.304252 0.188659 255 0 0
0.722821 0.342988 0.049815 255 0 0
0.676369 0.304252 0.236416 127 127 0
0.263693 0.342988 0.317670 255 0 0
-0.041427 0.342988 -0.541471 255 0 0
-0.000755 -0.470478 0.351924 153 0 76
-0.118720 0.329193 0.585485 255 0 0
-0.323153 0.323620 -0.301769 255 0 0
-0.218435 -0.380093 -0.166403 153 0 76
0.242108 -0.360724 -0.146163 153 0 76
0.326293 -0.360724 -0.399052 153 0 76
0.451354 -0.392484 -0.550784 153 0 76
-0.411204 0.308291 -0.615345 255 0 0
-0.027676 -0.443589 -0.446472 153 0 76
-0.565145 -0.094210 -0.491739 153 0 76
-0.604274 -0.383160 -0.512048 153 0 76
0.217247 0.304252 0.038786 255 0 0
-0.299812 0.342988 -0.162049 255 0 0
-0.077505 -0.380093 0.339216 153 0 76
0.277713 -0.380093 -0.175589 153 0 76
-0.565145 -0.277483 -0.445568 153 0 76
0.467600 -0.360724 -0.185495 153 0 76
0.066256 0.323620 0.383383 255 0 0
0.444227 0.323620 -0.407410 255 0 0
0.275178 -0.380093 0.491062 0 0 255
-0.003203 -0.360724 0.245986 153 0 76
0.599253 0.323620 0.542817 255 0 0
0.730146 0.323620 0.409694 255 0 0
-0.508183 -0.419575 -0.512048 0 255 0
0.133877 0.342988 0.329677 255 0 0
0.089340 -0.360724 0.033806 153 0 76
0.624087 -0.360724 -0.115580 153 0 76
-0.142722 -0.360724 0.273547 153 0 76
-0.742992 0.323620 -0.360775 255 0 0
-0.315640 -0.380093 0.127491 153 0 76
-0.660372 0.202890 0.455145 0 127 127
0.177168 -0.360724 0.323856 153 0 76
-0.127277 -0.380093 0.148712 153 0 76
-0.441517 -0.360724 -0.088333 153 0 76
0.409569 -0.360724 -0.459368 153 0 76
0.643756 0.238652 -0.197101 127 127 0
0.033825 0.323620 0.563794 255 0 0
0.203760 -0.360724 0.387332 153 0 76
-0.516276 -0.470478 -0.462693 153 76 0
0.470039 0.342988 0.466674 255 0 0
0.643756 0.284619 -0.183935 127 127 0
-0.471226 0.342988 -0.337760 255 0 0
-0.660372 0.252871 -0.175790 0 127 127
-0.616485 -0.410981 0.520925 0 0 255
-0.279548 0.342988 -0.038836 255 0 0
-0.660372 0.123853 -0.504313 153 0 76
-0.148100 -0.360724 0.128492 153 0 76
0.659399 -0.380093 0.043647 153 0 76
-0.190483 -0.411304 0.482188 0 0 255
0.337366 0.342988 0.543763 255 0 0
0.316354 -0.380093 -0.082539 153 0 76
-0.660372 -0.406169 0.430391 255 0 0
-0.116570 0.246650 0.482188 127 0 127
0.527314 -0.470478 -0.468403 204 51 127
-0.460550 -0.380093 -0.452782 153 0 76
0.544496 -0.360724 0.291388 153 0 76
-0.217496 0.323620 0.087181 255 0 0
-0.657954 -0.082156 -0.512048 153 0 76
-0.176165 -0.398893 -0.512048 0 255 0
-0.763669 0.339522 0.259317 255 0 0
0.029891 0.342988 -0.379580 255 0 0
0.581989 0.151365 -0.512048 76 0 153
-0.218367 0.323620 -0.198065 255 0 0
-0.045857 0.342988 -0.191380 255 0 0
0.083291 0.342988 0.016708 255 0 0
0.707307 0.342988 0.496712 255 0 0
-0.100613 -0.380093 0.407683 153 0 76
-0.089665 0.342988 0.453563 255 0 0
-0.410166 -0.380093 0.344311 153 0 76
0.380102 -0.380093 -0.038678 153 0 76
0.747053 0.331560 0.485349 255 0 0
0.613757 0.134148 -0.512048 76 0 153
0.618260 0.263372 -0.034298 76 153 0
-0.660143 -0.232991 -0.416821 153 0 76
0.574243 -0.380093 0.078164 153 0 76
-0.085908 0.304252 -0.542504 76 0 153
-0.667904 0.304252 0.120743 255 0 0
0.603204 0.342988 -0.208575 255 0 0
-0.579599 -0.360724 -0.173421 153 0 76
-0.147634 0.304252 0.070207 255 0 0
0.253991 0.342988 0.558316 255 0 0
0.148621 0.239423 0.004438 76 153 0
0.401448 0.323620 -0.474709 255 0 0
0.346599 0.323620 0.103388 255 0 0
-0.537676 0.323620 0.264212 255 0 0
-0.617535 0.304252 0.131129 255 0 0
0.358962 0.323620 -0.433778 255 0 0
-0.069404 0.237802 -0.512048 76 0 153
-0.264717 -0.360724 -0.096116 153 0 76
-0.575815 0.323620 -0.407290 255 0 0
-0.154235 0.342988 -0.035947 255 0 0
-0.330476 -0.380093 -0.243273 153 0 76
0.042910 -0.380093 -0.152613 153 0 76
-0.298384 0.323620 0.317957 255 0 0
-0.659946 0.342988 -0.194600 255 0 0
-0.551540 0.323620 0.118256 255 0 0
0.287903 -0.380093 0.389804 153 0 76
-0.722355 0.304252 0.042574 255 0 0
0.627875 0.304252 -0.549550 76 0 153
-0.523005 -0.470478 0.449268 76 0 153
0.590306 -0.470478 -0.378264 204 51 127
0.660676 0.342988 -0.075675 255 0 0
0.437898 -0.360724 0.103567 153 0 76
0.381502 0.304252 -0.065040 255 0 0
0.204666 -0.384964 -0.550784 153 0 76
0.155673 -0.407502 -0.550784 0 255 0
0.485351 0.304252 -0.007405 255 0 0
0.624783 -0.380093 0.389071 153 0 76
0.241629 0.342988 -0.259039 255 0 0
-0.027676 0.285791 -0.039807 153 0 76
0.085355 -0.380093 0.223663 153 0 76
0.181935 0.323620 0.245267 255 0 0
0.485055 0.304252 -0.541426 76 0 153
0.740831 0.323620 0.541489 255 0 0
0.262171 0.342988 -0.293157 255 0 0
-0.629844 0.342988 0.436010 255 0 0
-0.245810 0.323620 -0.351641 255 0 0
0.300008 -0.360724 -0.301884 153 0 76
-0.581940 0.342988 0.367211 255 0 0
0.223398 0.323620 0.449414 255 0 0
-0.172133 -0.380093 -0.478497 153 0 76
0.260887 0.213867 -0.530537 76 0 153
-0.372949 0.304252 -0.420104 255 0 0
-0.026581 -0.416964 -0.512048 0 255 0
0.328410 -0.360724 -0.446880 153 0 76
-0.633140 -0.192860 0.386961 76 0 153
0.537484 0.323620 0.028933 255 0 0
0.575824 0.323620 0.029424 255 0 0
0.545386 0.342988 -0.500686 255 0 0
-0.638637 0.342988 -0.386010 255 0 0
-0.668263 -0.489846 -0.456387 153 76 0
-0.600840 0.087466 -0.512048 153 0 76
-0.638815 0.304252 0.096645 255 0 0
0.531512 0.342988 0.579772 255 0 0
-0.071437 0.323620 0.266298 255 0 0
-0.057894 -0.380093 0.389987 153 0 76
0.225726 -0.446389 -0.512048 0 255 0
-0.014666 0.213867 -0.359115 153 0 76
-0.027676 -0.433855 0.224405 153 0 76
0.643756 0.284629 -0.413377 127 127 0
-0.660372 0.246630 -0.352020 0 127 127
-0.088778 0.342988 0.084220 255 0 0
0.640818 0.142464 0.386961 153 76 0
0.076880 0.342988 -0.193687 255 0 0
0.011060 0.232670 -0.251753 153 0 76
-0.503575 -0.360724 -0.113847 153 0 76
0.712391 0.323620 -0.468058 255 0 0
0.496187 0.323620 0.312252 255 0 0
0.455310 -0.360724 -0.304901 153 0 76
0.303072 0.213867 -0.532288 76 0 153
-0.053148 0.323620 -0.528934 255 0 0
-0.585994 -0.232377 -0.512048 153 0 76
-0.278488 0.323620 -0.376097 255 0 0
0.367417 -0.360724 -0.283276 153 0 76
-0.565145 0.208858 -0.417114 153 0 76
-0.420392 -0.380093 -0.197490 153 0 76
-0.706156 0.323620 -0.112468 255 0 0
0.428306 -0.360724 0.231478 153 0 76
-0.067799 0.323620 0.311685 255 0 0
0.560667 0.342988 -0.522314 255 0 0
-0.610017 0.098196 -0.416821 153 0 76
-0.699109 0.239337 0.393478 0 127 127
0.624519 -0.118013 0.482188 153 76 0
0.019435 0.304252 0.168117 255 0 0
0.251822 0.323620 -0.276571 255 0 0
0.548623 0.282167 0.482188 153 76 0
0.181889 -0.360724 -0.140369 153 0 76
-0.109671 -0.380093 -0.482352 153 0 76
0.330380 0.304252 -0.282574 255 0 0
-0.086745 -0.385057 -0.512048 153 0 76
-0.084702 0.323620 -0.003549 255 0 0
0.630789 0.323620 0.548110 255 0 0
0.385913 -0.360724 -0.508898 153 0 76
-0.763669 0.336159 -0.239572 255 0 0
-0.521165 0.242691 0.520925 127 0 127
0.285845 0.342988 0.530793 255 0 0
0.692534 0.342988 -0.247307 255 0 0
0.189350 0.304252 -0.360129 255 0 0
0.627453 0.213867 -0.545283 76 0 153
-0.012139 0.298848 0.482188 127 0 127
-0.057736 0.304252 0.242812 255 0 0
0.728413 0.323620 0.264479 255 0 0
-0.107312 0.323620 -0.592137 255 0 0
0.295349 0.304252 -0.219308 255 0 0
-0.376141 -0.360724 0.170113 153 0 76
0.545494 0.213867 0.512807 127 0 127
0.276358 -0.360724 0.367549 153 0 76
0.028010 0.342988 0.381013 255 0 0
0.744650 0.342988 0.137093 255 0 0
0.132599 0.323620 0.018660 255 0 0
0.038566 -0.380093 -0.528863 153 0 76
-0.197936 0.323620 -0.331135 255 0 0
0.550012 -0.380093 0.473861 153 0 76
0.504173 -0.380093 -0.211415 153 0 76
-0.722734 0.323620 0.470444 255 0 0
-0.461372 -0.360724 0.341937 153 0 76
-0.732715 0.304252 0.521938 255 0 0
-0.204005 -0.360724 0.128342 153 0 76
-0.470894 0.323620 -0.515223 255 0 0
0.016279 0.259168 -0.034298 76 153 0
-0.611498 0.304252 -0.404271 255 0 0
-0.131158 0.269778 -0.034298 76 153 0
-0.027676 -0.468966 0.424710 153 0 76
-0.123547 -0.380093 -0.161613 153 0 76
0.226354 -0.380093 -0.163682 153 0 76
0.747053 0.322685 0.038505 255 0 0
-0.156487 -0.423126 0.520925 0 0 255
-0.040575 0.242453 0.520925 127 0 127
-0.749165 0.323620 -0.432811 255 0 0
-0.486613 0.342988 0.215060 255 0 0
0.577751 0.275642 -0.550784 76 0 153
-0.277491 -0.380093 -0.152986 153 0 76
-0.546701 -0.360724 0.416834 153 0 76
0.568609 0.302043 -0.550784 76 0 153
0.741878 0.342988 0.281150 255 0 0
0.202971 -0.380093 -0.030672 153 0 76
-0.089081 -0.360724 0.293000 153 0 76
0.616792 0.342988 0.199658 255 0 0
-0.605099 -0.380093 0.253560 153 0 76
0.575621 -0.049063 -0.416821 76 0 153
0.199007 0.304252 -0.058504 255 0 0
0.668642 0.213867 -0.127200 127 127 0
-0.465779 0.304252 0.522792 255 0 0
0.431644 -0.360724 -0.425186 153 0 76
-0.565145 -0.065918 0.458354 76 0 153
-0.412283 0.342988 0.044688 255 0 0
-0.576501 -0.380093 0.361527 153 0 76
0.589658 -0.360724 0.045232 153 0 76
0.421018 -0.360724 -0.199358 153 0 76
0.457709 0.304252 -0.319972 255 0 0
0.648183 -0.380093 0.268553 153 0 76
0.682492 -0.425121 0.392404 204 51 127
-0.660372 -0.466182 -0.310882 255 0 0
0.001211 0.213867 -0.512847 153 0 76
-0.566551 -0.380093 -0.537879 0 255 0
0.125183 0.273214 -0.550784 76 0 153
0.747053 0.314454 -0.052458 255 0 0
-0.575431 0.304252 0.282812 255 0 0
-0.092620 0.304252 -0.042716 76 153 0
-0.635368 0.342988 0.520034 255 0 0
0.262536 -0.380093 -0.426235 153 0 76
0.677071 -0.489846 -0.502932 204 51 127
-0.649128 0.304252 -0.124610 255 0 0
-0.411532 0.323620 0.236130 255 0 0
0.198803 0.213867 0.503622 127 0 127
-0.005472 -0.380093 -0.531023 0 255 0
0.353331 -0.360724 -0.108555 153 0 76
0.184337 0.323620 -0.437014 255 0 0
0.279577 0.323620 0.348471 255 0 0
0.499679 0.342988 0.157862 255 0 0
-0.346950 0.342988 -0.012082 255 0 0
0.310897 0.342988 -0.182017 255 0 0
-0.168833 -0.360724 -0.381669 153 0 76
-0.191715 0.323620 0.422123 255 0 0
-0.609735 0.323620 0.548680 255 0 0
-0.625015 0.304252 -0.056407 255 0 0
0.291289 -0.360724 0.434598 153 0 76
-0.622579 0.304252 0.458961 255 0 0
-0.480869 -0.380093 -0.257118 153 0 76
0.447182 0.342988 -0.332167 255 0 0
-0.706451 0.342988 0.526400 255 0 0
-0.660372 0.049210 0.462677 76 0 153
-0.268100 -0.385000 -0.550784 153 0 76
0.548528 -0.265453 0.439518 153 76 0
0.520713 0.304252 -0.020891 255 0 0
0.525779 0.323620 0.079020 255 0 0
0.237075 -0.380093 -0.365614 153 0 76
0.224729 -0.380093 -0.018725 153 0 76
-0.556436 0.323620 0.523837 255 0 0
0.351161 -0.380093 -0.178481 153 0 76
-0.066516 0.342988 -0.286893 255 0 0
0.038342 0.304252 -0.002078 76 153 0
0.439193 0.323620 -0.319050 255 0 0
0.512491 0.304252 -0.320662 255 0 0
0.562521 0.342988 -0.009574 255 0 0
-0.258958 -0.380093 0.156022 153 0 76
-0.570199 -0.489846 0.419470 76 0 153
0.607319 0.323620 -0.591174 255 0 0
-0.723635 0.342988 0.212214 255 0 0
-0.313892 -0.451980 0.520925 0 0 255
-0.361066 0.304252 -0.121423 255 0 0
-0.650669 0.323620 -0.417464 255 0 0
0.370162 -0.360724 0.107882 153 0 76
0.009218 0.323620 -0.117840 255 0 0
0.537833 -0.360724 0.455256 153 0 76
-0.242243 0.323620 0.299990 255 0 0
-0.660372 -0.461354 -0.488345 255 0 0
0.188799 -0.380093 0.461670 153 0 76
-0.591753 -0.380093 0.145235 153 0 76
0.194446 -0.360724 0.002392 153 0 76
0.618933 -0.142164 -0.416821 76 0 153
-0.044842 0.323620 -0.118015 255 0 0
-0.094779 -0.360724 -0.290701 153 0 76
-0.626213 0.304252 -0.440899 255 0 0
-0.565145 -0.404531 -0.487345 153 0 76
0.236334 0.304252 -0.290575 255 0 0
-0.120766 0.323620 -0.162283 255 0 0
-0.699109 0.277481 -0.450643 0 127 127
0.018883 0.323620 -0.282805 255 0 0
-0.226629 0.342988 -0.226914 255 0 0
0.603163 0.304252 0.385667 153 76 0
-0.565145 -0.101939 0.464226 76 0 153
-0.605399 -0.380093 -0.460884 153 0 76
0.079499 0.304252 -0.529922 76 0 153
-0.044485 0.323620 -0.029986 255 0 0
0.065173 0.342988 -0.379822 255 0 0
0.660845 0.213867 0.342478 127 127 0
-0.660372 0.250456 -0.489893 153 0 76
0.235975 0.304252 -0.485995 255 0 0
0.548528 -0.330599 0.412171 153 76 0
0.593626 0.304252 -0.050236 76 153 0
0.320064 0.304252 0.270790 255 0 0
0.402459 0.285727 0.520925 127 0 127
0.643756 -0.108395 0.414060 153 76 0
-0.468130 0.323620 -0.355508 255 0 0
0.560050 -0.389597 0.520925 0 0 255
-0.700478 0.323620 -0.612493 255 0 0
0.028694 0.229339 -0.512048 153 0 76
0.682492 0.255319 0.091609 127 127 0
0.442153 0.323620 -0.575251 255 0 0
-0.669674 0.213867 0.043762 0 127 127
-0.459850 0.213867 -0.529615 76 0 153
-0.209244 -0.380093 -0.061778 153 0 76
0.290111 0.323620 0.094412 255 0 0
-0.382604 -0.436581 0.520925 0 0 255
0.394870 -0.410076 -0.550784 0 255 0
0.201823 -0.380093 -0.343450 153 0 76
0.605967 0.323620 0.041243 255 0 0
0.682492 0.263120 -0.340308 127 127 0
-0.450696 0.323620 0.408967 255 0 0
-0.111109 -0.360724 0.084605 153 0 76
-0.121205 -0.360724 0.401489 153 0 76
-0.019003 0.342988 -0.233131 255 0 0
0.150024 0.323620 0.390242 255 0 0
-0.021669 0.213867 0.326291 153 0 76
-0.321112 -0.360724 -0.527330 153 0 76
0.503332 -0.380093 0.498668 0 0 255
-0.586752 0.276511 -0.034298 76 153 0
-0.502240 0.323620 -0.324034 255 0 0
0.682492 -0.419118 -0.036869 204 51 127
-0.681541 0.304252 -0.107632 0 127 127
-0.724288 0.342988 0.046873 255 0 0
-0.247743 0.342988 0.413793 255 0 0
-0.255508 -0.380093 -0.378204 153 0 76
-0.376539 -0.360724 0.131594 153 0 76
-0.622895 -0.512814 0.399557 127 0 127
0.228467 0.304252 -0.398099 255 0 0
-0.584575 0.320944 -0.615345 255 0 0
-0.638469 -0.341749 0.482188 153 0 76
-0.228587 -0.470478 -0.532099 0 255 0
-0.693856 0.304252 -0.206530 0 127 127
-0.467613 -0.360724 -0.119472 153 0 76
-0.650768 0.241095 -0.550784 76 0 153
-0.005614 -0.470478 0.463470 153 0 76
0.663854 -0.380093 -0.137513 153 0 76
-0.578270 -0.380093 0.497220 0 0 255
0.649969 -0.360724 -0.090949 153 0 76
-0.555416 -0.380093 -0.131107 153 0 76
0.649378 0.342988 0.319926 255 0 0
0.278325 -0.380093 -0.228408 153 0 76
0.646647 0.304252 -0.572001 255 0 0
-0.481577 -0.380093 0.393349 153 0 76
0.419285 0.304252 0.164091 255 0 0
-0.447057 0.342988 -0.102741 255 0 0
0.230672 0.304252 -0.057587 255 0 0
0.643756 -0.427906 -0.233949 204 51 127
-0.664393 0.304252 0.518023 127 0 127
-0.463082 0.323620 -0.563555 255 0 0
-0.558621 0.323620 -0.260269 255 0 0
0.182637 -0.360724 -0.466677 153 0 76
-0.070861 -0.360724 0.028853 153 0 76
-0.401257 0.323620 -0.298919 255 0 0
0.209810 0.323620 -0.366345 255 0 0
-0.217429 -0.380093 -0.544448 153 0 76
-0.547836 0.323620 0.478391 255 0 0
0.279011 0.304252 -0.570584 255 0 0
-0.420514 -0.380093 -0.295054 153 0 76
0.595425 0.342988 0.147461 255 0 0
-0.559315 -0.380093 0.189552 153 0 76
-0.400599 -0.415504 0.520925 0 0 255
-0.485614 -0.380093 0.132166 153 0 76
-0.085595 0.314340 0.585485 255 0 0
-0.187245 0.230540 -0.034298 76 153 0
0.657208 0.304252 -0.158876 255 0 0
0.628494 0.120036 -0.416821 76 0 153
0.267782 0.342988 -0.204672 255 0 0
-0.173788 0.323620 -0.073422 255 0 0
0.002019 0.213867 0.333905 153 0 76
-0.609016 0.223395 0.386961 76 0 153
-0.129659 -0.360724 0.008501 153 0 76
0.253003 -0.360724 0.377368 153 0 76
0.572334 0.053855 -0.512048 76 0 153
-0.614394 0.323620 0.303209 255 0 0
-0.647143 -0.489846 0.370498 76 0 153
-0.522448 0.323620 -0.003214 255 0 0
0.308021 0.304252 0.561359 255 0 0
-0.653420 -0.360724 0.267291 153 0 76
0.387079 0.304252 0.343050 255 0 0
0.394641 0.323620 -0.428337 255 0 0
0.410898 0.323620 0.349090 255 0 0
0.297898 0.304252 0.503996 127 0 127
0.433895 0.342988 -0.054947 255 0 0
-0.561917 -0.380093 0.273164 153 0 76
0.396119 -0.417652 -0.512048 0 255 0
-0.633761 0.342988 -0.303178 255 0 0
0.459568 0.304252 0.535820 255 0 0
0.654751 0.323620 0.255791 255 0 0
0.682492 -0.379907 0.257472 153 0 76
-0.660372 0.239670 0.340203 0 127 127
-0.056406 0.328760 0.585485 255 0 0
-0.547133 0.213867 -0.000130 76 153 0
0.718247 0.323620 0.067865 255 0 0
-0.627460 -0.397476 -0.512048 153 0 76
0.342988 0.304252 -0.429498 255 0 0
-0.348753 0.342458 0.585485 255 0 0
0.410399 0.342988 0.330891 255 0 0
-0.622695 -0.489846 0.480750 76 0 153
0.379028 0.342988 0.452926 255 0 0
0.612163 -0.246198 0.482188 153 76 0
0.673734 -0.360724 -0.208798 153 0 76
-0.047681 0.323620 0.451819 255 0 0
0.345185 -0.380093 -0.026328 153 0 76
0.567143 -0.380093 0.254175 153 0 76
-0.336001 0.304252 0.401563 255 0 0
0.153027 0.342988 0.440043 255 0 0
0.266723 -0.360724 0.034513 153 0 76
-0.095319 0.342988 -0.129126 255 0 0
0.104721 0.323620 0.230540 255 0 0
-0.763669 0.342815 0.415859 255 0 0
-0.181215 0.323620 0.042259 255 0 0
0.548528 0.266268 0.433156 153 76 0
0.548528 -0.424712 -0.420340 76 0 153
-0.553857 0.342988 -0.063366 255 0 0
0.643756 -0.416943 -0.069267 204 51 127
-0.413743 -0.360724 0.377616 153 0 76
-0.485919 0.323620 0.473352 255 0 0
-0.485581 0.304252 -0.439791 255 0 0
0.067649 0.323620 0.234836 255 0 0
-0.697568 -0.360724 0.215620 153 0 76
-0.537527 0.342988 0.492307 255 0 0
0.619460 -0.380093 -0.349912 153 0 76
-0.084563 0.323620 -0.223716 255 0 0
-0.507394 -0.380093 -0.271727 153 0 76
0.651444 -0.360724 0.245094 153 0 76
0.706419 0.304252 -0.115535 255 0 0
-0.331969 -0.360724 0.319015 153 0 76
-0.699109 -0.467105 0.326757 255 0 0
0.507455 0.304854 -0.615345 255 0 0
0.569111 -0.380093 0.150218 153 0 76
-0.272574 -0.360724 0.218436 153 0 76
0.500341 0.323620 0.384745 255 0 0
0.412335 -0.360724 -0.542154 153 0 76
0.672815 0.311508 -0.615345 255 0 0
0.057096 -0.380093 0.461319 153 0 76
-0.688809 0.304252 -0.003955 255 0 0
0.644436 0.323620 0.488985 255 0 0
0.470400 0.304252 -0.497824 76 0 153
-0.580730 0.304252 0.375791 255 0 0
-0.492575 0.323620 0.579677 255 0 0
0.437446 0.323620 0.215169 255 0 0
0.393663 -0.380093 -0.417202 153 0 76
0.055470 -0.380093 0.116289 153 0 76
0.667686 0.304252 -0.025406 127 127 0
0.512921 0.323620 -0.367001 255 0 0
-0.699109 -0.464780 -0.376711 255 0 0
0.378948 0.342988 -0.385553 255 0 0
0.337396 -0.380093 -0.342425 153 0 76
-0.175950 -0.360724 -0.146504 153 0 76
0.056012 0.342988 0.100238 255 0 0
0.472061 0.246134 -0.550784 76 0 153
0.123493 -0.380093 0.401338 153 0 76
0.148512 -0.380093 -0.505253 153 0 76
-0.006482 0.342988 -0.090854 255 0 0
0.643756 0.262912 -0.099666 127 127 0
-0.589300 0.287726 -0.512048 76 0 153
-0.656644 -0.350471 0.386961 76 0 153
-0.342330 -0.380093 -0.428556 153 0 76
-0.508706 0.304252 -0.379307 255 0 0
0.011060 -0.383357 0.038918 153 0 76
0.469019 0.323620 -0.124134 255 0 0
0.656619 0.323620 -0.288878 255 0 0
0.682492 0.247028 -0.427374 127 127 0
0.011060 0.271363 0.044250 153 0 76
0.013062 0.323620 0.295329 255 0 0
0.391691 -0.360724 0.089169 153 0 76
0.459215 0.342988 -0.355353 255 0 0
-0.040461 -0.380093 0.407209 153 0 76
0.639944 -0.177768 -0.416821 76 0 153
-0.586667 -0.139327 -0.416821 153 0 76
0.558429 0.323620 -0.560294 255 0 0
-0.633541 -0.561886 0.393215 127 127 0
0.161214 0.323620 -0.039596 255 0 0
0.684618 0.342988 0.184604 255 0 0
-0.565145 0.216274 0.420356 76 0 153
0.240269 0.304252 -0.145415 255 0 0
0.433386 0.323620 0.299437 255 0 0
0.279735 0.304252 0.173008 255 0 0
-0.607648 -0.470478 0.443426 76 0 153
-0.375475 0.213867 -0.526628 76 0 153
-0.624459 -0.360724 -0.472373 153 0 76
0.682492 -0.394904 0.124932 204 51 127
0.741503 0.342988 0.173988 255 0 0
0.117850 0.304252 0.539349 255 0 0
-0.360319 0.342988 -0.153405 255 0 0
0.366284 0.295085 0.520925 127 0 127
0.180036 0.342988 -0.189841 255 0 0
-0.190976 0.323620 0.164632 255 0 0
0.064135 0.304252 0.459095 255 0 0
-0.391010 -0.360724 -0.545177 153 0 76
0.108450 -0.360724 -0.421777 153 0 76
0.469211 0.342988 0.325944 255 0 0
0.286393 -0.380093 -0.296247 153 0 76
0.133591 0.342988 0.379053 255 0 0
0.003735 -0.470478 0.004719 153 0 76
-0.738003 0.323620 0.562258 255 0 0
-0.565145 -0.138107 -0.439007 153 0 76
-0.343295 0.304252 0.191325 255 0 0
0.086085 0.323620 -0.042554 255 0 0
0.170063 0.304252 0.302513 255 0 0
-0.224610 0.304252 0.530063 127 0 127
0.609707 -0.360724 -0.473964 153 0 76
-0.699109 0.290797 -0.378755 0 127 127
-0.699109 -0.466370 0.237621 255 0 0
0.677163 0.323620 -0.455068 255 0 0
-0.356815 0.304252 0.160882 255 0 0
-0.027676 0.260501 0.460557 153 0 76
-0.431148 -0.380093 0.169840 153 0 76
-0.660774 -0.380093 0.046688 255 0 0
-0.373952 0.225358 0.482188 127 0 127
0.692993 0.342988 -0.517017 255 0 0
-0.111887 -0.380093 0.452699 153 0 76
-0.188364 0.323620 0.373542 255 0 0
0.061778 0.323620 -0.554634 255 0 0
0.367461 0.235455 0.520925 127 0 127
0.434986 -0.360724 -0.487644 153 0 76
-0.350784 0.323620 0.122354 255 0 0
-0.203933 -0.380093 0.167386 153 0 76
0.409882 -0.360724 0.176808 153 0 76
-0.212232 0.304252 -0.153657 255 0 0
0.575589 0.342988 -0.220789 255 0 0
-0.622268 -0.360724 0.064390 153 0 76
0.682492 0.277917 0.126653 127 127 0
-0.670291 0.323620 -0.001065 255 0 0
-0.628749 0.230713 -0.550784 76 0 153
0.600662 -0.470478 0.396041 153 76 0
-0.199039 -0.380093 -0.181960 153 0 76
0.747053 0.322812 -0.283106 255 0 0
0.249734 0.304252 -0.537287 255 0 0
-0.116713 0.342988 0.492111 255 0 0
-0.117725 0.342988 -0.019944 255 0 0
0.273797 0.342988 0.045582 255 0 0
0.031105 -0.380093 -0.487758 153 0 76
0.446005 0.342988 -0.205552 255 0 0
-0.401628 -0.380093 -0.010277 153 0 76
-0.470538 -0.470478 0.501425 0 0 255
0.620261 -0.470478 0.343760 153 0 76
-0.636898 -0.453157 0.482188 0 0 255
0.297084 0.342988 0.202920 255 0 0
0.349401 0.304252 -0.034586 255 0 0
-0.597502 -0.380093 -0.247230 153 0 76
-0.672817 -0.470478 -0.363404 153 76 0
-0.327907 -0.380093 -0.391858 153 0 76
-0.565145 -0.295536 0.421840 76 0 153
-0.228455 0.244210 0.520925 127 0 127
0.238424 -0.380093 -0.241238 153 0 76
0.057110 0.342988 0.221476 255 0 0
0.643694 -0.180272 0.482188 153 76 0
0.177213 0.304252 0.328711 255 0 0
0.246052 0.304252 -0.221638 255 0 0
0.327255 0.323620 0.293608 255 0 0
0.021466 0.323620 0.229787 255 0 0
0.682492 0.299759 -0.403516 255 0 0
-0.274133 0.304252 0.033475 255 0 0
0.283740 0.323620 0.253580 255 0 0
0.615287 -0.069693 0.482188 153 76 0
-0.653922 -0.360724 0.336995 153 0 76
0.044334 -0.360724 0.162361 153 0 76
-0.213605 0.304252 0.557276 255 0 0
0.007270 -0.380093 0.097350 153 0 76
0.392773 0.323620 -0.547251 255 0 0
-0.217281 0.304252 -0.455034 255 0 0
0.259901 -0.360724 -0.165523 153 0 76
0.044415 0.304252 -0.258635 255 0 0
-0.702118 0.323620 -0.077573 255 0 0
0.019789 0.323620 0.353751 255 0 0
-0.256011 0.304252 -0.168198 255 0 0
-0.389103 -0.360724 0.206069 153 0 76
-0.660372 0.236189 0.016173 0 127 127
-0.213785 -0.360724 0.398826 153 0 76
0.648873 -0.360724 -0.237924 153 0 76
-0.280170 -0.380093 0.194622 153 0 76
-0.699109 0.247197 -0.508245 76 0 153
-0.699109 -0.381599 0.023828 153 0 76
0.707603 0.342988 0.171357 255 0 0
-0.637725 0.323620 -0.367558 255 0 0
-0.123231 0.220833 0.482188 127 0 127
0.365463 0.304252 -0.095216 255 0 0
-0.704644 0.323620 0.161895 255 0 0
-0.418060 0.304252 -0.130298 255 0 0
-0.258378 0.323620 0.143559 255 0 0
0.526590 0.304252 -0.054824 255 0 0
-0.554616 0.323620 -0.080916 255 0 0
-0.437659 0.323620 -0.423555 255 0 0
-0.643185 -0.489846 0.512935 76 0 153
-0.682071 -0.380093 0.004207 255 0 0
0.643756 -0.413427 0.236348 204 51 127
0.035312 0.304252 -0.283294 255 0 0
-0.097362 -0.380093 -0.434927 153 0 76
-0.356887 0.323620 0.374166 255 0 0
-0.299615 -0.380093 -0.285724 153 0 76
0.658361 -0.484722 0.273900 153 0 76
-0.485403 -0.380093 -0.451970 153 0 76
0.319597 0.304252 0.358820 255 0 0
0.255922 -0.380093 -0.292207 153 0 76
-0.575591 0.342988 -0.208480 255 0 0
0.636037 -0.360724 0.117625 153 0 76
0.011060 -0.403138 -0.133706 153 0 76
-0.251792 0.342988 0.275912 255 0 0
0.009464 -0.470478 0.157239 153 0 76
0.312400 -0.360724 0.332381 153 0 76
0.127202 0.323620 0.581753 255 0 0
-0.293436 0.304252 0.291949 255 0 0
0.481607 -0.360724 0.307289 153 0 76
-0.075287 0.342988 -0.474091 255 0 0
-0.132190 -0.360724 -0.266106 153 0 76
-0.526744 0.342988 -0.592846 255 0 0
-0.661525 0.342988 0.584843 255 0 0
-0.565316 -0.334097 0.386961 76 0 153
-0.027676 -0.409011 0.370070 153 0 76
0.138962 -0.360724 0.160346 153 0 76
-0.619231 -0.167859 0.386961 76 0 153
-0.079317 0.304252 0.329377 255 0 0
-0.383336 -0.360724 -0.398405 153 0 76
-0.379665 -0.380093 0.387526 153 0 76
0.334955 0.342988 -0.134600 255 0 0
-0.499649 0.323620 0.118761 255 0 0
-0.595414 0.323620 0.172962 255 0 0
0.301663 -0.380093 0.283105 153 0 76
0.675251 -0.477108 -0.550784 204 51 127
0.309499 -0.470478 -0.535472 0 255 0
0.348350 0.323620 -0.228674 255 0 0
-0.324767 -0.466639 -0.550784 0 255 0
-0.466649 0.304252 -0.230341 255 0 0
-0.614219 -0.360724 -0.126534 153 0 76
-0.602835 0.304252 0.504396 255 0 0
0.388759 -0.380093 -0.002496 153 0 76
0.316667 -0.380093 0.191443 153 0 76
-0.455956 0.323620 -0.594195 255 0 0
0.548528 0.203600 0.452470 153 76 0
0.070277 -0.380093 -0.037320 153 0 76
-0.128629 -0.360724 -0.290298 153 0 76
-0.693512 0.323620 -0.451818 255 0 0
-0.413211 0.323620 -0.084375 255 0 0
-0.660372 0.055798 0.408892 76 0 153
-0.704948 0.304252 0.337704 255 0 0
0.110583 -0.360724 0.112006 153 0 76
-0.358750 -0.380093 0.212522 153 0 76
-0.686482 0.323620 0.129161 255 0 0
-0.609110 -0.489846 -0.379136 153 76 0
-0.428759 0.323620 0.425809 255 0 0
-0.001040 0.323620 -0.408239 255 0 0
-0.413410 0.304252 -0.335213 255 0 0
0.130377 0.323620 0.292652 255 0 0
0.555360 -0.360724 0.082182 153 0 76
-0.553338 -0.578983 -0.485217 76 0 153
0.682492 -0.438982 0.188763 204 51 127
0.044946 0.304252 0.389711 255 0 0
-0.333491 0.342988 -0.372023 255 0 0
0.211416 -0.380093 0.173274 153 0 76
0.011060 0.279477 0.123608 153 0 76
0.140070 0.323620 -0.424711 255 0 0
0.273012 -0.360724 -0.124279 153 0 76
0.549002 0.323620 0.234058 255 0 0
-0.660372 -0.438286 0.167614 255 0 0
-0.450686 0.213867 0.511970 127 0 127
0.657816 0.304252 -0.198997 127 127 0
-0.204971 0.342988 -0.215442 255 0 0
-0.365609 -0.360724 -0.521756 153 0 76
0.640744 0.304252 -0.068181 127 127 0
0.643756 -0.194179 -0.468002 76 0 153
-0.143494 0.342988 0.307643 255 0 0
0.573928 0.342988 0.377375 255 0 0
-0.654007 -0.360724 -0.241493 255 0 0
-0.646863 -0.015032 -0.512048 153 0 76
-0.127576 0.323620 0.303084 255 0 0
-0.255237 0.304252 -0.081016 255 0 0
0.121055 -0.360724 -0.067904 153 0 76
0.485150 0.342988 0.104247 255 0 0
0.083905 0.342988 -0.534594 255 0 0
-0.617574 -0.360724 -0.049624 153 0 76
-0.687068 -0.380093 0.446938 153 0 76
-0.687744 0.323620 0.040284 255 0 0
0.643756 -0.401875 0.443284 204 51 127
-0.037462 -0.360724 0.344959 153 0 76
0.092508 -0.360724 0.437823 153 0 76
-0.409074 0.323620 0.077452 255 0 0
0.566123 0.090535 0.482188 153 76 0
0.107785 0.323620 -0.083524 255 0 0
0.174286 0.323620 -0.368802 255 0 0
-0.156263 -0.380093 0.311619 153 0 76
-0.575658 0.323620 -0.480919 255 0 0
-0.260177 0.304252 -0.350713 255 0 0
-0.645458 -0.489846 -0.465814 153 76 0
-0.235591 0.342988 0.500967 255 0 0
0.683849 0.323620 0.445406 255 0 0
0.265221 0.323620 0.138286 255 0 0
-0.599562 -0.360724 0.099575 153 0 76
0.645832 -0.489846 0.443970 153 0 76
-0.576427 0.304252 -0.363777 255 0 0
0.643756 0.235966 -0.427569 76 0 153
0.288969 0.235060 0.482188 127 0 127
0.117947 0.304252 0.502250 255 0 0
0.477680 0.323620 0.252477 255 0 0
-0.568242 -0.489846 0.472053 76 0 153
0.632299 0.323620 0.176759 255 0 0
-0.359202 -0.380093 0.447334 153 0 76
-0.660372 -0.433041 0.399019 76 0 153
0.435827 -0.437075 -0.512048 0 255 0
0.048359 0.342988 0.192761 255 0 0
0.249427 0.323620 -0.513087 255 0 0
-0.371082 0.264854 0.482188 127 0 127
0.129663 -0.360724 -0.364029 153 0 76
-0.610502 0.342988 0.170561 255 0 0
-0.027676 0.234475 0.243589 153 0 76
-0.572974 -0.470478 0.436115 76 0 153
-0.450900 -0.380093 -0.405412 153 0 76
0.505032 0.323620 -0.161339 255 0 0
0.231934 0.342988 -0.082556 255 0 0
0.347741 0.323620 0.222185 255 0 0
0.223248 0.342988 0.531486 255 0 0
-0.135048 0.342988 0.340254 255 0 0
-0.080156 0.304252 -0.164119 255 0 0
-0.136331 0.304252 -0.163077 255 0 0
-0.596649 0.342988 0.216355 255 0 0
-0.328224 -0.380093 -0.506714 0 255 0
-0.057998 -0.360724 0.206527 153 0 76
-0.599061 0.323620 0.441089 255 0 0
0.207473 0.304252 0.087440 255 0 0
-0.481312 0.323620 -0.160241 255 0 0
-0.564416 0.323620 -0.340362 255 0 0
-0.594378 0.304252 -0.188133 255 0 0
-0.028858 -0.380093 -0.025160 153 0 76
0.279688 0.304252 -0.104653 255 0 0
-0.157789 0.323620 -0.493311 255 0 0
0.187711 -0.360724 -0.385257 153 0 76
0.588249 0.342988 0.531542 255 0 0
-0.134345 0.323620 -0.264393 255 0 0
0.230365 0.342988 0.581475 255 0 0
0.332527 0.323620 -0.205408 255 0 0
-0.404507 -0.380093 0.160534 153 0 76
-0.676518 -0.470478 0.518769 76 0 153
0.643756 0.198316 -0.442398 127 127 0
0.566752 0.304252 -0.442557 76 0 153
-0.119697 -0.360724 0.160849 153 0 76
0.534330 0.323620 -0.140375 255 0 0
-0.714930 0.323620 -0.527968 255 0 0
0.044443 0.304252 0.026903 255 0 0
0.590501 0.342988 0.300780 255 0 0
0.576008 -0.360724 0.397939 153 0 76
0.548528 0.039576 0.401536 153 76 0
-0.053963 0.323620 -0.204130 255 0 0
0.694187 0.323620 0.220298 255 0 0
0.604026 0.289633 -0.416821 255 0 0
-0.605551 0.323620 0.331778 255 0 0
-0.659570 -0.419933 -0.550784 0 255 0
-0.499738 -0.489846 -0.491546 153 76 0
0.508463 -0.380093 -0.437743 153 0 76
0.156863 0.342988 0.550319 255 0 0
-0.280515 0.254989 0.520925 127 0 127
-0.359655 0.323620 -0.250370 255 0 0
0.397685 -0.380093 -0.242053 153 0 76
0.650830 -0.380093 0.101636 204 51 127
-0.118689 0.342988 0.248390 255 0 0
0.132062 0.323620 0.104727 255 0 0
-0.456130 0.304252 -0.303051 255 0 0
-0.224980 -0.360724 -0.011288 153 0 76
0.591622 0.342988 0.006890 255 0 0
0.193289 -0.470478 -0.532489 0 255 0
-0.480892 -0.360724 -0.414591 153 0 76
0.555438 0.304252 -0.480781 76 0 153
0.422633 0.304252 0.416689 255 0 0
0.422312 0.342988 -0.325640 255 0 0
-0.619505 0.304252 -0.016308 255 0 0
-0.594059 -0.276723 -0.416821 153 0 76
-0.189106 0.342988 0.346234 255 0 0
0.647919 -0.360724 0.314292 153 0 76
0.682492 0.218555 -0.432018 127 127 0
-0.554074 0.323620 -0.497957 255 0 0
-0.565145 -0.051046 -0.456110 153 0 76
0.643756 0.239757 0.072612 127 127 0
-0.469286 0.323620 -0.070829 255 0 0
-0.580988 0.304252 -0.242916 255 0 0
0.198337 0.323620 0.551206 255 0 0
-0.285632 0.304252 -0.431529 255 0 0
0.682492 -0.448368 0.264954 204 51 127
0.436888 0.304252 -0.248672 255 0 0
0.356053 0.323620 -0.315377 255 0 0
0.313794 0.233906 0.482188 127 0 127
0.197882 0.342988 0.279475 255 0 0
0.489014 0.323620 -0.599335 255 0 0
-0.086289 0.259811 -0.550784 76 0 153
-0.598094 -0.489846 -0.474621 153 76 0
-0.427252 0.342988 0.356998 255 0 0
-0.162491 -0.380093 0.034041 153 0 76
0.071260 0.304252 -0.097689 255 0 0
0.131836 -0.380093 0.475604 153 0 76
-0.013501 0.304252 -0.088634 153 0 76
0.302480 -0.416688 -0.550784 0 255 0
0.032150 -0.380093 -0.279525 153 0 76
-0.690308 0.323620 -0.167617 255 0 0
-0.328733 0.238794 0.004438 76 153 0
0.351352 0.342988 -0.066809 255 0 0
0.418471 0.304252 -0.529114 255 0 0
0.623004 -0.360724 -0.164686 153 0 76
0.124123 0.323620 -0.533918 255 0 0
0.669934 -0.470478 -0.409215 204 51 127
-0.676764 -0.360724 0.376441 153 0 76
-0.089751 0.242151 0.482188 127 0 127
0.179220 0.323620 0.107953 255 0 0
-0.693353 -0.380093 0.175379 153 0 76
0.046465 -0.441693 0.520925 0 0 255
0.678660 -0.380093 -0.477953 153 0 76
0.656077 0.342988 0.018386 255 0 0
-0.755221 0.304252 -0.559200 255 0 0
0.681913 0.342988 0.363670 255 0 0
0.264799 -0.380093 -0.100169 153 0 76
-0.124874 0.323620 0.384242 255 0 0
-0.447459 0.323620 0.337202 255 0 0
0.201173 -0.360724 0.316147 153 0 76
0.008222 -0.360724 -0.431797 153 0 76
-0.048450 0.323620 -0.158178 255 0 0
-0.503479 -0.360724 -0.461877 153 0 76
0.562076 -0.360724 -0.481637 153 0 76
0.050692 0.304252 0.270712 255 0 0
0.199704 -0.380093 0.091996 153 0 76
0.296658 0.323620 0.138241 255 0 0
-0.362985 0.304252 -0.313808 255 0 0
-0.571363 -0.047505 0.386961 76 0 153
0.171787 0.338603 0.585485 255 0 0
0.360555 -0.380093 -0.524789 153 0 76
-0.006694 0.342988 -0.508859 255 0 0
-0.574435 -0.360724 -0.297349 153 0 76
-0.475041 -0.360724 -0.495006 153 0 76
0.110709 0.342988 0.485231 255 0 0
-0.164549 -0.380093 0.503030 153 0 76
0.168901 -0.380093 -0.041246 153 0 76
0.105106 -0.380093 0.169897 153 0 76
-0.366775 -0.360724 0.015374 153 0 76
0.319474 -0.360724 -0.316104 153 0 76
0.322455 0.342988 -0.028220 255 0 0
0.232138 0.304252 0.378639 255 0 0
-0.604282 0.323620 -0.366886 255 0 0
-0.032292 0.323620 -0.179996 255 0 0
0.660948 -0.470478 0.025879 204 51 127
-0.551207 -0.360724 -0.042714 153 0 76
-0.498994 -0.380093 0.452890 153 0 76
0.231927 -0.360724 -0.493766 153 0 76
0.143418 0.323620 -0.284244 255 0 0
-0.660372 -0.007251 0.449068 76 0 153
-0.434628 0.323620 0.181375 255 0 0
0.056277 -0.470478 0.510083 0 0 255
0.099895 0.342988 0.511254 255 0 0
-0.027676 -0.426305 -0.309245 153 0 76
-0.605674 0.323620 -0.040661 255 0 0
-0.515913 -0.360724 -0.142353 153 0 76
-0.226661 0.251132 -0.550784 76 0 153
0.467706 0.304252 0.037010 255 0 0
-0.045658 0.304252 -0.388366 255 0 0
0.724893 0.323620 0.167202 255 0 0
-0.358071 -0.360724 -0.341386 153 0 76
0.528331 -0.380093 -0.162605 153 0 76
0.102443 -0.390478 0.520925 153 0 76
0.676006 -0.470478 0.143214 204 51 127
-0.239437 0.342988 -0.127117 255 0 0
-0.620637 -0.018431 -0.416821 153 0 76
-0.156046 -0.380093 -0.182762 153 0 76
-0.645511 -0.384566 -0.416821 153 0 76
-0.015547 0.323620 -0.482292 255 0 0
0.165794 0.213867 0.501134 127 0 127
0.595362 0.304252 -0.160979 255 0 0
0.211457 0.323620 -0.594132 255 0 0
-0.629205 0.323620 0.418975 255 0 0
-0.699109 0.220137 -0.328101 0 127 127
0.620006 -0.360724 0.220330 153 0 76
0.011060 0.255351 -0.242292 153 0 76
-0.423516 -0.380093 0.493540 0 0 255
-0.546237 0.304252 -0.324147 255 0 0
0.643659 0.323620 -0.029621 255 0 0
-0.545211 -0.413554 0.520925 0 0 255
0.420681 0.323620 -0.345003 255 0 0
0.025167 0.323620 -0.093643 255 0 0
0.646760 0.213867 -0.173274 127 127 0
-0.161585 0.304252 -0.051654 255 0 0
-0.207608 0.231594 0.482188 127 0 127
-0.528603 0.323620 -0.091457 255 0 0
-0.518758 -0.470478 -0.494385 153 76 0
0.664469 0.323620 -0.114524 255 0 0
-0.607377 -0.529683 -0.474830 76 0 153
-0.015226 -0.380093 -0.369645 153 0 76
-0.671069 -0.360724 -0.496016 153 0 76
-0.038627 -0.380093 -0.001202 153 0 76
0.245765 -0.360724 -0.403346 153 0 76
0.414679 0.323620 0.206264 255 0 0
0.579128 0.323620 0.252346 255 0 0
0.214010 0.323620 0.420884 255 0 0
-0.475686 -0.360724 -0.142584 153 0 76
0.092925 -0.360724 0.511195 153 0 76
0.525568 0.283698 -0.550784 76 0 153
0.643756 -0.451467 0.164260 204 51 127
0.643756 -0.407657 0.093393 204 51 127
0.662879 -0.380093 -0.049220 204 51 127
-0.347714 0.323620 -0.553372 255 0 0
-0.665724 0.323620 -0.560481 255 0 0
0.556255 0.342988 0.339473 255 0 0
-0.411064 0.342988 -0.060722 255 0 0
0.172311 -0.360724 0.504622 153 0 76
0.331947 0.342988 -0.264636 255 0 0
-0.521660 -0.360724 0.073188 153 0 76
-0.467830 -0.360724 0.291733 153 0 76
-0.478630 0.323620 -0.217194 255 0 0
-0.521498 -0.380093 -0.353719 153 0 76
0.043882 -0.360724 -0.138041 153 0 76
-0.744580 0.304252 -0.514184 255 0 0
0.308850 0.342988 0.169421 255 0 0
0.112122 -0.425289 0.482188 0 0 255
0.197412 0.323620 -0.529468 255 0 0
-0.673462 -0.380093 0.228537 255 0 0
-0.644893 -0.143955 -0.416821 153 0 76
0.693882 0.304252 0.078043 255 0 0
0.602622 0.323620 -0.127543 255 0 0
-0.020716 -0.380093 0.069747 153 0 76
0.232440 0.323620 0.395808 255 0 0
0.278231 0.342988 0.396677 255 0 0
0.019042 0.323620 0.530563 255 0 0
-0.450709 0.304252 0.449140 255 0 0
-0.402491 -0.360724 0.018745 153 0 76
-0.686555 0.323620 -0.382342 255 0 0
-0.511555 0.304252 -0.303624 255 0 0
-0.660372 -0.278227 0.429337 76 0 153
0.071649 -0.380093 0.088859 153 0 76
-0.395824 -0.380093 -0.437415 153 0 76
-0.235706 -0.380093 -0.228900 153 0 76
-0.261891 -0.380093 -0.210458 153 0 76
-0.103570 -0.408645 0.482188 0 0 255
-0.626866 0.262465 -0.034298 76 153 0
-0.055848 0.304252 0.361096 255 0 0
-0.196979 -0.360724 0.065498 153 0 76
0.591515 -0.360724 -0.295035 153 0 76
0.555990 0.304252 0.532167 127 0 127
-0.035437 0.249901 0.004438 76 153 0
0.548528 -0.339978 0.477784 153 76 0
-0.306411 -0.360724 -0.024873 153 0 76
0.297485 0.342988 -0.092823 255 0 0
0.298994 0.342988 0.559689 255 0 0
-0.565145 0.045750 0.441678 76 0 153
0.182757 0.323620 -0.131815 255 0 0
-0.491468 0.323620 -0.079749 255 0 0
0.551018 -0.380093 0.056823 153 0 76
0.560126 0.323620 -0.168326 255 0 0
0.099064 0.236558 0.004438 76 153 0
0.105293 0.342988 -0.401305 255 0 0
-0.485530 0.342988 -0.440253 255 0 0
0.630896 -0.470478 0.498304 0 0 255
-0.039107 0.323620 -0.594717 255 0 0
-0.148770 0.304252 0.521941 127 0 127
-0.259197 0.342988 0.551127 255 0 0
0.531734 0.323620 -0.302362 255 0 0
-0.286245 -0.360724 -0.107975 153 0 76
0.536699 0.323620 -0.072861 255 0 0
0.179350 0.342988 0.414365 255 0 0
-0.737540 0.323620 0.430556 255 0 0
0.011060 0.260288 0.092421 153 0 76
-0.578002 0.342988 -0.240915 255 0 0
-0.210109 0.342988 0.260247 255 0 0
0.656023 -0.470478 -0.529426 0 255 0
0.143270 0.323620 -0.508433 255 0 0
-0.660372 0.291287 -0.283814 255 0 0
0.213810 0.304252 -0.259889 255 0 0
0.513949 -0.360724 -0.250302 153 0 76
-0.603760 0.323620 -0.559294 255 0 0
0.668216 -0.414269 -0.512048 204 51 127
-0.349831 -0.380093 0.136431 153 0 76
0.353976 -0.380093 0.339972 153 0 76
-0.583056 0.323620 0.000809 255 0 0
-0.621958 -0.380093 -0.062865 153 0 76
0.682492 -0.362132 0.420139 153 0 76
0.159584 0.304252 0.435856 255 0 0
0.165771 -0.380093 -0.525854 0 255 0
-0.303657 -0.360724 -0.459149 153 0 76
-0.152205 -0.360724 -0.426430 153 0 76
-0.617039 -0.380093 -0.371950 153 0 76
0.030082 0.304252 -0.395082 255 0 0
-0.407561 0.323620 0.363329 255 0 0
-0.620459 -0.380093 0.464703 153 0 76
-0.026348 -0.380093 0.492854 0 0 255
-0.527411 0.304252 -0.048289 255 0 0
-0.052428 -0.380093 -0.222588 153 0 76
-0.348943 0.342988 0.535732 255 0 0
0.482142 0.323620 -0.488884 255 0 0
-0.533298 -0.380093 -0.223232 153 0 76
